# .PCD v0.7 - Point Cloud Data file format
VERSION 0.7
FIELDS x y z rgba
SIZE 4 4 4 4
TYPE F F F U
COUNT 1 1 1 1
WIDTH 201
HEIGHT 1
VIEWPOINT 0 0 0 1 0 0 0
POINTS 201
DATA ascii
0.053683873 0.038097367 0.6271022 4286809212
0.05550278 0.038168576 0.62827438 4284770140
0.057267111 0.038199112 0.62877703 4280427802
0.059034664 0.038229953 0.62928468 4279178253
0.060695264 0.038191747 0.62865579 4279244046
0.062499154 0.038243327 0.6295048 4279836696
0.064290002 0.038284376 0.63018048 4281942072
0.066001855 0.038277462 0.63006669 4280955178
0.067726545 0.038278159 0.63007814 4279770904
0.069482833 0.038296238 0.63037574 4279309839
0.071245514 0.038316879 0.63071549 4279112460
0.072883509 0.03827107 0.62996149 4279046921
0.057132889 0.03982548 0.6273033 4279309325
0.058939766 0.039887052 0.62827313 4279178253
0.06053016 0.039802775 0.62694567 4279967769
0.050320793 0.041583933 0.6279459 4289310376
0.05202746 0.041575156 0.62781334 4287533195
0.053805128 0.04162186 0.62851858 4280888102
0.055622764 0.041695632 0.62963259 4279375118
0.057449307 0.041771449 0.63077748 4279178253
0.059271328 0.041839655 0.63180745 4280033562
0.060903881 0.041774035 0.63081652 4280034076
0.062537804 0.041712947 0.62989408 4279639318
0.064108029 0.041613791 0.62839675 4279178766
0.06585101 0.04162902 0.6286267 4279047180
0.067670785 0.041690785 0.6295594 4278784008
0.069527045 0.041771408 0.63077688 4278915335
0.071248755 0.041769244 0.63074422 4279177737
0.072866656 0.041707765 0.62981582 4278782981
0.074428447 0.041617751 0.62845653 4281744180
0.076003864 0.041539248 0.62727112 4288981924
0.077789269 0.041576441 0.62783277 4288652705
0.079510756 0.041578609 0.62786549 4289114030
0.081180163 0.041554023 0.62749422 4289640120
0.055395294 0.043240339 0.62705767 4279112460
0.062301673 0.043271925 0.62751573 4279178766
0.069100283 0.043229818 0.62690508 4279178507
0.048538111 0.044959016 0.62710583 4287862929
0.050289579 0.044991318 0.62755638 4281612594
0.053720154 0.044989139 0.62752599 4279178253
0.055476751 0.045021672 0.62797976 4279573524
0.057233501 0.045052372 0.62840801 4279902489
0.059018012 0.045102499 0.62910718 4279376145
0.060756274 0.045115437 0.62928766 4279112973
0.062611893 0.045212414 0.63064033 4279047180
0.064227983 0.045135859 0.62957251 4278981128
0.065980598 0.045156743 0.6298638 4279046921
0.067698337 0.045153297 0.62981576 4279244300
0.069491647 0.045199182 0.63045573 4279309839
0.071210377 0.045195505 0.63040447 4286481277
0.0727835 0.045101773 0.62909704 4289244844
0.074410297 0.045044865 0.62830329 4289311409
0.076052763 0.044999801 0.6276747 4289705914
0.077924021 0.045089107 0.62892038 4289508535
0.079553738 0.04503781 0.62820488 4289705144
0.081337735 0.04507418 0.62871218 4289770937
0.083066143 0.045078881 0.62877774 4289902523
0.084938638 0.045159996 0.62990916 4289902523
0.062355686 0.046745371 0.62805974 4278981387
0.064006574 0.046696436 0.62740225 4278915594
0.065842763 0.046781708 0.62854797 4278915594
0.067370795 0.04664927 0.62676853 4280099868
0.046831097 0.048398353 0.62721753 4282073146
0.048623428 0.048474789 0.6282081 4279178253
0.050267991 0.04840371 0.62728697 4279309839
0.052057497 0.048472296 0.6281758 4279704597
0.053791467 0.048486434 0.62835902 4279705110
0.055566698 0.048535734 0.62899792 4279244559
0.057346761 0.048586171 0.62965155 4279178766
0.05915514 0.048656959 0.63056892 4278915594
0.060887035 0.048662603 0.63064206 4278849801
0.062556855 0.048619691 0.63008595 4278849801
0.064194731 0.048554923 0.62924659 4278784008
0.065998428 0.048615679 0.63003397 4282468416
0.067756101 0.048640307 0.63035315 4289573809
0.069372937 0.04856512 0.62937874 4289508788
0.07098534 0.048490543 0.62841225 4289969085
0.072548777 0.048386831 0.62706822 4289837500
0.074315943 0.048420656 0.62750655 4289969086
0.076019801 0.04841264 0.62740266 4290099902
0.077751733 0.048422448 0.6275298 4290165695
0.079466768 0.048421547 0.62751812 4290165695
0.081186719 0.048423611 0.62754488 4290099902
0.083087251 0.048531074 0.62893754 4290297281
0.085018277 0.048651624 0.63049978 4290165695
0.086537406 0.04853636 0.62900603 4290297281
0.055453926 0.050154272 0.62772137 4278981387
0.057121672 0.050111029 0.62718016 4278981387
0.05891512 0.050177366 0.62801039 4278915594
0.060604844 0.050154101 0.62771922 4278915335
0.06233776 0.050166883 0.6278792 4279244046
0.063955992 0.050089162 0.62690645 4281481009
0.065669112 0.050087869 0.6268903 4289639600
0.067414984 0.050110985 0.62717962 4289838013
0.069105685 0.050092965 0.62695408 4290232258
0.048618294 0.051906049 0.62814176 4279901976
0.050286539 0.051854543 0.62751848 4279770390
0.052085031 0.051936317 0.62850803 4279310352
0.053822435 0.051953897 0.62872076 4279047180
0.055615962 0.052022882 0.62955558 4278981387
0.057363968 0.052046422 0.62984049 4278718215
0.0591297 0.052084208 0.63029772 4278717702
0.060883023 0.052109227 0.63060051 4278915081
0.062540419 0.052053027 0.62992042 4279704597
0.064186938 0.051991034 0.62917018 4286876294
0.065800168 0.051906019 0.6281414 4289837753
0.067589931 0.051961038 0.62880719 4289969599
0.069371589 0.052007258 0.62936652 4290166978
0.071044408 0.051971611 0.62893516 4290166465
0.072596669 0.051851545 0.62748218 4290166465
0.074329466 0.051862996 0.62762076 4290363844
0.07602068 0.051845573 0.62740988 4290298051
0.077833556 0.051910054 0.62819022 4290298051
0.07941778 0.051822551 0.62713128 4290428867
0.081154764 0.051836316 0.62729788 4290297281
0.082918875 0.05186649 0.62766302 4290428867
0.084853292 0.051999796 0.62927622 4290560453
0.086619563 0.052026816 0.62960321 4290692039
0.088235542 0.051964264 0.62884623 4290823625
0.062233329 0.053512033 0.62682736 4283718230
0.050407995 0.055421054 0.6290341 4279112973
0.052135788 0.055428669 0.62912053 4279047180
0.053923588 0.055497553 0.62990236 4279047434
0.055543918 0.055395149 0.62874007 4279047434
0.057182532 0.055316586 0.62784839 4279113227
0.058867466 0.055286109 0.62750244 4279310352
0.060639445 0.055336785 0.62807763 4281218350
0.062393975 0.055369187 0.62844539 4290034362
0.064106986 0.055363998 0.6283865 4290232257
0.065813735 0.055353809 0.62827086 4290100672
0.067514502 0.055339236 0.62810546 4290298051
0.069259934 0.055361092 0.62835354 4290363076
0.070988104 0.055368423 0.62843674 4290560455
0.072665863 0.055337016 0.62808025 4290363590
0.074407645 0.055354692 0.62828088 4290232004
0.076075301 0.05531767 0.62786067 4290297797
0.077915244 0.05540479 0.62884951 4290166211
0.079482153 0.055298191 0.62763959 4290298051
0.081196897 0.055296779 0.62762356 4290166465
0.082841769 0.055248827 0.62707931 4290297281
0.084811859 0.055415314 0.62896895 4290363074
0.086574785 0.055442516 0.62927771 4290428867
0.088228673 0.055400185 0.62879723 4290889418
0.053663548 0.05694462 0.62686473 4278784262
0.08798705 0.056963742 0.62707525 4290561223
0.055562124 0.058854084 0.62894613 4278915848
0.057103269 0.058669925 0.6269781 4278784008
0.060586527 0.058721524 0.6275295 4290165948
0.062457867 0.058867447 0.62908894 4290297281
0.06407737 0.05877455 0.62809616 4290363074
0.065700017 0.058689311 0.62718529 4290363076
0.067497075 0.058760248 0.62794334 4290428869
0.069140121 0.058696914 0.62726653 4290428869
0.070897751 0.058731567 0.62763685 4290428869
0.07423573 0.058655996 0.62682927 4290428869
0.079397529 0.058669295 0.62697136 4290099902
0.081236482 0.058758952 0.62792951 4290099902
0.082922131 0.058736321 0.62768763 4289969086
0.084802598 0.058849797 0.62890029 4289903293
0.086547501 0.058866557 0.6290794 4290101185
0.069323674 0.062293448 0.62893176 4290363074
0.071085483 0.062329803 0.62929881 4290297281
0.072592013 0.062145885 0.62744194 4290232258
0.074450761 0.062265038 0.62864494 4289968832
0.076029226 0.0621497 0.62748045 4290034625
0.077778123 0.062175687 0.62774283 4289903039
0.081197299 0.06216418 0.62762666 4289771453
0.082899302 0.062153105 0.62751484 4289705660
0.084744669 0.062247775 0.62847066 4289508281
0.086322874 0.062146351 0.62744665 4289639867
0.070892029 0.063876845 0.62758625 4290165694
0.072822854 0.06578698 0.62943721 4289771707
0.074739806 0.065959267 0.63108557 4289903293
0.076422364 0.065921582 0.63072503 4289705913
0.078085177 0.065868899 0.63022101 4289705914
0.079592369 0.065690063 0.62850994 4289508281
0.081233501 0.065626994 0.6279065 4289442488
0.082945749 0.065622807 0.62786645 4289441974
0.084745832 0.065686867 0.6284793 4289704633
0.086471364 0.065691739 0.62852597 4289376181
0.076413602 0.067639083 0.63065273 4288257697
0.078159742 0.067657329 0.63082284 4289047214
0.079471961 0.067307286 0.62755913 4289047214
0.080151871 0.06961441 0.63292813 4287797146
0.081430979 0.069229975 0.62943292 4288520870
0.082963653 0.069072582 0.62800193 4288719019
0.084801123 0.069170184 0.62888932 4289179570
0.076557532 0.071223103 0.63184059 4287205263
0.078705527 0.07160493 0.63522786 4287007884
0.079830937 0.071060017 0.6303938 4287139470
0.08007846 0.073010042 0.63234842 4287139468
0.081376143 0.07262449 0.62900907 4287073675
0.082830213 0.072391585 0.62699187 4287205261
0.076885737 0.074999876 0.63454932 4287336849
0.078646787 0.075024039 0.63475376 4287073677
0.079671815 0.074360207 0.62913728 4287205263
0.080039151 0.0764319 0.632038 4287271056
0.081328221 0.076020814 0.62863863 4287336595
0.082887933 0.075874507 0.62742877 4287599767
0.078446329 0.07829652 0.63313586 4287468435
0.079598553 0.077730499 0.62855881 4287533974
