# .PCD v0.7 - Point Cloud Data file format
VERSION 0.7
FIELDS x y z rgba
SIZE 4 4 4 4
TYPE F F F U
COUNT 1 1 1 1
WIDTH 319
HEIGHT 1
VIEWPOINT 0 0 0 1 0 0 0
POINTS 319
DATA ascii
0.04808268 -0.065306216 0.60001683 4292535013
0.049628988 -0.065181509 0.59887105 4292600038
0.051388573 -0.065335929 0.60028988 4292073692
0.046725508 -0.064054407 0.60368723 4292600806
0.048241675 -0.063875474 0.60200089 4292600036
0.049759466 -0.063710444 0.60044551 4292534242
0.051543862 -0.063886404 0.60210389 4291876312
0.045126047 -0.062474873 0.6043815 4292600806
0.04661262 -0.062252343 0.60222876 4292797415
0.048216052 -0.062195741 0.60168117 4292600036
0.049666204 -0.061951678 0.59932011 4292534242
0.051467713 -0.062147483 0.60121435 4292073691
0.053256828 -0.062316656 0.60285091 4292402399
0.055044338 -0.062473848 0.60437161 4292139738
0.046605866 -0.060596254 0.6021415 4292731622
0.048240222 -0.06058028 0.60198277 4292534243
0.049783688 -0.060454994 0.60073781 4292600036
0.051608797 -0.060668804 0.60286242 4292007898
0.053308498 -0.060726508 0.60343581 4292336606
0.055114109 -0.060897771 0.60513765 4292073432
0.045106769 -0.059143197 0.60412329 4292732392
0.046492282 -0.05880551 0.60067397 4292797415
0.048049629 -0.058700796 0.59960437 4292731622
0.049571734 -0.05856137 0.59818017 4292534243
0.051359963 -0.058735188 0.59995568 4292073692
0.053164132 -0.058915906 0.60180163 4292139484
0.054963909 -0.059081051 0.6034885 4292205277
0.056668807 -0.059137553 0.60406566 4291612881
0.045168418 -0.05756928 0.604949 4292929003
0.046640206 -0.057344329 0.60258514 4293060587
0.048195016 -0.057233315 0.60141861 4292797415
0.049813334 -0.057202574 0.60109556 4292600036
0.051545512 -0.057300363 0.60212314 4291942106
0.053450774 -0.057578545 0.60504633 4292073691
0.04508495 -0.0558112 0.60383105 4292994794
0.046634361 -0.055689063 0.60250962 4292994794
0.048170917 -0.055560429 0.60111791 4292665829
0.049781501 -0.055522859 0.60071141 4292600036
0.051491644 -0.055595182 0.6014939 4291942106
0.053404912 -0.055875544 0.60452718 4292073691
0.045175485 -0.054268267 0.60504365 4292731622
0.046758693 -0.054185059 0.60411596 4292929001
0.048334789 -0.054099571 0.60316283 4292797415
0.049979918 -0.054094449 0.60310572 4292336864
0.051687021 -0.054154582 0.60377616 4291810520
0.046786621 -0.052563969 0.60447681 4292863208
0.048261225 -0.052369881 0.60224485 4292402657
0.049876638 -0.052336369 0.60185945 4292336864
0.051543236 -0.052356984 0.60209656 4291678933
0.053375065 -0.052538969 0.60418934 4292008152
0.054959454 -0.052473772 0.60343957 4291613394
0.046758946 -0.050880395 0.60411924 4292665829
0.048364457 -0.050831027 0.60353309 4292534243
0.049957335 -0.050772082 0.60283321 4292139485
0.05167504 -0.050839711 0.60363621 4291613140
0.053437315 -0.050945643 0.60489398 4291810773
0.055117045 -0.050968882 0.60516989 4291350220
0.046766993 -0.04923638 0.60422319 4292468449
0.048310909 -0.049125694 0.60286486 4292402656
0.049886268 -0.049053233 0.60197562 4292139484
0.051429573 -0.048954893 0.6007688 4291744726
0.053169541 -0.049044043 0.60186285 4291679187
0.054898135 -0.049117666 0.60276634 4291087048
0.046786238 -0.047603197 0.60447186 4292402656
0.04841296 -0.04757693 0.60413831 4292336863
0.04999423 -0.047509212 0.6032784 4292073691
0.05164047 -0.047505587 0.60323238 4291350222
0.053253159 -0.047472276 0.60280937 4291350220
0.054994706 -0.047552388 0.60382664 4290955462
0.04518079 -0.045998622 0.6051147 4292468449
0.046826743 -0.045989536 0.60499519 4292336863
0.048317645 -0.045833986 0.6029489 4292336863
0.049930822 -0.045800868 0.60251325 4292139484
0.051536951 -0.045763612 0.60202312 4291349968
0.053226672 -0.045800589 0.60250956 4291284429
0.054855857 -0.04578482 0.60230213 4290823365
0.056524828 -0.04580221 0.6025309 4290099642
0.046836186 -0.044343602 0.6051172 4292600035
0.048416827 -0.044275407 0.60418659 4292731621
0.050002292 -0.044215981 0.60337567 4292139484
0.05178757 -0.044331402 0.60495073 4291349968
0.023526851 -0.042442348 0.60162956 4292929770
0.025219183 -0.042521026 0.60274482 4292863977
0.026919918 -0.04260334 0.60391164 4292732391
0.028521409 -0.042528156 0.60284591 4292994793
0.030184554 -0.042548098 0.60312855 4293060586
0.031849399 -0.04256824 0.60341412 4293060586
0.046673674 -0.042540267 0.60301757 4292797414
0.048191749 -0.042424593 0.60137784 4292929000
0.04983132 -0.042419989 0.60131258 4292139484
0.051575877 -0.042502191 0.60247785 4291415761
0.053323679 -0.042581894 0.60360765 4291350222
0.055034626 -0.042628266 0.60426497 4290560706
0.023583965 -0.040895719 0.60309011 4292929770
0.025306303 -0.041013498 0.60482699 4292732391
0.028633514 -0.041039839 0.60521543 4293060586
0.030217471 -0.040942926 0.60378629 4293191915
0.031938378 -0.041032005 0.60509992 4292994793
0.04678743 -0.040990461 0.60448724 4293323758
0.048324414 -0.040891871 0.60303336 4293060586
0.049927868 -0.040854186 0.60247761 4292139738
0.0517575 -0.040998071 0.60459948 4291350222
0.021899587 -0.039183948 0.60213572 4292731875
0.023532651 -0.039160665 0.60177791 4292732645
0.02524855 -0.039269257 0.60344666 4292798438
0.026955208 -0.039351035 0.60470331 4292732902
0.028571744 -0.039299395 0.60390979 4292732645
0.030142864 -0.039194345 0.60229552 4292863461
0.031817053 -0.039227258 0.60280126 4292929254
0.033538587 -0.039312426 0.60411006 4292995047
0.035149924 -0.039266493 0.60340416 4292929000
0.036865022 -0.039335392 0.60446298 4292863207
0.03850789 -0.039324615 0.60429734 4292929000
0.046836153 -0.039377935 0.60511672 4292665828
0.048362203 -0.03927305 0.60350496 4293257965
0.049989901 -0.039254911 0.60322618 4292139738
0.051662728 -0.039272234 0.60349238 4291284429
0.021884745 -0.037511449 0.6017276 4291679187
0.023500668 -0.037463598 0.60096002 4291876566
0.025166392 -0.037496209 0.60148311 4291811543
0.026917789 -0.037644625 0.60386389 4291943129
0.028617576 -0.037707876 0.60487854 4292008922
0.0302002 -0.037618272 0.60344118 4292206301
0.031810045 -0.037570104 0.60266852 4292468703
0.03352743 -0.037647441 0.60390908 4292468703
0.035180867 -0.03764908 0.60393536 4292600289
0.036846418 -0.037662953 0.60415792 4292534496
0.038475245 -0.037639707 0.60378504 4292731875
0.021796042 -0.03572014 0.5992887 4292468449
0.023418851 -0.03569505 0.59886777 4292402910
0.026786553 -0.035817359 0.60091978 4292206301
0.028478026 -0.035877511 0.60192895 4292140508
0.030129028 -0.035882883 0.60201907 4292337117
0.03172981 -0.035830986 0.60114837 4292073945
0.03342263 -0.035883021 0.6020214 4292073945
0.035065196 -0.035878748 0.60194969 4292008152
0.036722612 -0.035889369 0.60212791 4292008152
0.038317204 -0.035840318 0.60130495 4291942359
0.040122364 -0.035984151 0.6037181 4291876566
0.041762426 -0.035974398 0.60355449 4291942359
0.043495975 -0.036042854 0.60470301 4291679187
0.045085534 -0.035991352 0.60383892 4291481554
0.04848003 -0.036059085 0.60497528 4291679187
0.050071403 -0.03601345 0.60420966 4291744980
0.051577006 -0.035911012 0.60249102 4291284429
0.053311415 -0.035969295 0.60346884 4290889671
0.021910245 -0.034259442 0.60242873 4292139484
0.023501778 -0.034177534 0.60098839 4292205277
0.025115484 -0.034136474 0.6002664 4292336863
0.026844215 -0.034247193 0.60221332 4292337117
0.028575502 -0.034348186 0.60398924 4292337117
0.03022333 -0.034343302 0.60390335 4292337117
0.03183217 -0.034296915 0.60308766 4292336863
0.033474062 -0.034288965 0.60294783 4292271070
0.035153791 -0.034318693 0.60347056 4292402656
0.036733236 -0.034252245 0.60230213 4292337117
0.038372312 -0.034244716 0.60216975 4292271324
0.040121078 -0.034331672 0.60369879 4292205531
0.04182972 -0.034378771 0.604527 4292139738
0.043468438 -0.034367006 0.60432017 4291942359
0.045034889 -0.034301065 0.60316062 4291876312
0.046735559 -0.0343384 0.60381711 4291744726
0.048419699 -0.034361448 0.60422242 4292205277
0.050060511 -0.034353249 0.60407823 4291744980
0.051591337 -0.034272507 0.60265845 4291218636
0.053233627 -0.034268517 0.6025883 4290692292
0.054964717 -0.034320217 0.60349739 4290165946
0.023558499 -0.032612134 0.60243887 4292007898
0.025231784 -0.032645002 0.603046 4291942105
0.026876735 -0.032639418 0.60294288 4292073945
0.028466258 -0.032571066 0.60168022 4292073945
0.03009833 -0.032556202 0.60140568 4292073945
0.031789508 -0.032603502 0.60227942 4292073691
0.033480044 -0.03264552 0.6030556 4292007898
0.0351969 -0.032708045 0.60421062 4292007898
0.036792144 -0.03265702 0.60326803 4292139738
0.038459603 -0.03267172 0.60353959 4292205531
0.040127147 -0.03268528 0.6037901 4292008152
0.04172371 -0.032642234 0.60299492 4291876566
0.043320537 -0.032602668 0.60226399 4291744980
0.044880681 -0.032539401 0.60109526 4291744726
0.046640776 -0.032620452 0.60259253 4292073691
0.048273019 -0.032609597 0.60239202 4292271324
0.049880788 -0.032583479 0.60190952 4291744980
0.051355172 -0.032474682 0.59989971 4291284429
0.05666152 -0.032695994 0.60398799 4289573550
0.028602628 -0.031073403 0.60456258 4291810773
0.030231927 -0.03104835 0.60407513 4291810773
0.031941853 -0.031104403 0.60516572 4291744980
0.036900293 -0.031098006 0.60504127 4291679187
0.043455455 -0.031051667 0.60413969 4291679187
0.045027975 -0.030996583 0.60306799 4292205277
0.04665954 -0.030984605 0.60283494 4292336863
0.048340604 -0.031005189 0.60323542 4292402656
0.049994513 -0.031007577 0.60328186 4291613394
0.05165891 -0.031016106 0.60344779 4291218636
0.053256374 -0.030985164 0.60284579 4290823363
0.055039503 -0.031060858 0.6043185 4290165433
0.02695228 -0.029423362 0.60463762 4291481806
0.028578624 -0.029395021 0.60405523 4291613392
0.030205568 -0.02937036 0.60354847 4291416013
0.031922795 -0.02943149 0.60480464 4291416013
0.033575423 -0.029429978 0.60477358 4291547599
0.035248797 -0.029445933 0.60510147 4291481806
0.041846946 -0.029430095 0.60477597 4291481808
0.043384142 -0.029350884 0.60314822 4292336863
0.044955239 -0.029299574 0.60209382 4292403426
0.046651721 -0.029330723 0.60273391 4292665828
0.048254151 -0.029302627 0.60215658 4292336863
0.049859736 -0.029278243 0.60165548 4291613394
0.051639646 -0.029354513 0.60322279 4291284429
0.053285457 -0.029352186 0.60317498 4291020742
0.055085074 -0.029432183 0.60481888 4290362812
0.056604296 -0.029362066 0.603378 4289704882
0.043420047 -0.027723985 0.60364741 4292534242
0.045018792 -0.027691726 0.60294503 4292863208
0.046674713 -0.027695673 0.60303098 4292600036
0.048362434 -0.027717574 0.60350782 4292336864
0.050039925 -0.027732361 0.6038298 4291547347
0.056668002 -0.027742799 0.60405707 4289967540
0.041754857 -0.026064055 0.60344505 4292534242
0.043296084 -0.025998358 0.601924 4292732392
0.044904109 -0.025976114 0.60140902 4293127150
0.046579015 -0.025992766 0.60179454 4292600036
0.048184954 -0.025971107 0.60129309 4292336864
0.0498055 -0.025958491 0.60100102 4291613141
0.051571876 -0.026020261 0.60243112 4291349968
0.0532788 -0.026049135 0.60309964 4291087050
0.054975156 -0.026071265 0.60361201 4290494913
0.056602161 -0.026060175 0.60335523 4289902263
0.04349114 -0.02446159 0.60463578 4292863978
0.045058228 -0.024414554 0.60347319 4293456115
0.046555143 -0.024334166 0.60148615 4292600036
0.048164941 -0.024316251 0.60104334 4292271071
0.049778238 -0.024301231 0.60067207 4291481555
0.051567793 -0.024370467 0.60238343 4291481555
0.05336782 -0.02444021 0.60410732 4291086796
0.041835666 -0.022806833 0.60461295 4292731622
0.043464083 -0.022793505 0.60425961 4293257966
0.04501849 -0.022743763 0.60294098 4293192173
0.046533257 -0.022678219 0.60120338 4292468450
0.048037 -0.022611957 0.59944677 4292271071
0.049603365 -0.022578578 0.59856188 4292007898
0.051294103 -0.022602135 0.59918636 4291613140
0.053130217 -0.022686305 0.60141772 4291284175
0.043531217 -0.021173295 0.60519296 4293126380
0.045127675 -0.021145668 0.60440332 4292863207
0.046578761 -0.021054283 0.60179126 4292468449
0.048146404 -0.021020023 0.60081202 4292205277
0.049784321 -0.021017693 0.60074544 4291547347
0.051578581 -0.02107941 0.60250944 4291678933
0.041833565 -0.01949819 0.60458255 4292534243
0.043388113 -0.019453714 0.60320348 4292994794
0.044988118 -0.019432127 0.60253417 4292731621
0.046542149 -0.019392913 0.60131824 4292402656
0.048050642 -0.019338047 0.599617 4292271070
0.049838092 -0.019395366 0.6013943 4291613140
0.051476397 -0.019392835 0.6013158 4291744726
0.053358208 -0.019479353 0.60399848 4291547347
0.043438051 -0.017824227 0.60389769 4292600806
0.04505403 -0.017810039 0.60341698 4292469219
0.046578709 -0.017762035 0.60179061 4292402656
0.048155982 -0.017736679 0.60093153 4292205277
0.049838092 -0.017750338 0.6013943 4291678933
0.051500481 -0.017756326 0.60159713 4291876312
0.041752223 -0.016159212 0.60340703 4292403427
0.043330468 -0.016132299 0.60240203 4292535013
0.044834066 -0.016080584 0.60047096 4292665828
0.046485636 -0.016083723 0.60058814 4292402910
0.048002146 -0.01604151 0.59901184 4292271324
0.049686324 -0.016056268 0.59956294 4291810773
0.053239599 -0.016139098 0.60265589 4291810260
0.041876081 -0.014551719 0.60519701 4292600806
0.043371752 -0.014498315 0.60297596 4292797414
0.044943582 -0.01447335 0.60193771 4292797414
0.04652936 -0.014454482 0.60115302 4292468703
0.048226357 -0.014470273 0.60180974 4292205531
0.049766045 -0.01443938 0.6005249 4291942359
0.051413462 -0.01444072 0.60058063 4292008152
0.05329762 -0.014506411 0.60331267 4291941846
0.041779906 -0.012866671 0.60380709 4292534243
0.043306567 -0.012829649 0.60206974 4292797414
0.044779435 -0.012779988 0.59973925 4292797414
0.046367541 -0.012765564 0.59906232 4292534242
0.048079267 -0.012784995 0.59997422 4292205277
0.049870521 -0.012823595 0.6017856 4292008152
0.051555011 -0.012833153 0.60223413 4292139738
0.0532833 -0.012852681 0.60315055 4291810773
0.054946262 -0.012855753 0.60329473 4291349709
0.043389466 -0.011204181 0.60322225 4292797415
0.044982433 -0.011189987 0.60245806 4292731621
0.046543397 -0.011169116 0.60133439 4292600035
0.048379477 -0.011213436 0.60372049 4292402656
0.050102618 -0.011229517 0.6045863 4292073691
0.053445585 -0.01123697 0.60498756 4291876566
0.054988328 -0.011214106 0.60375661 4291415502
0.040077366 -0.009551283 0.60304105 4292468450
0.041799292 -0.0095678521 0.60408723 4292797415
0.043351505 -0.0095457938 0.60269451 4292797415
0.044893239 -0.0095231282 0.60126346 4292731622
0.04642744 -0.0095005231 0.59983623 4292665828
0.048173014 -0.0095212376 0.60114408 4292336863
0.05000997 -0.0095580509 0.60346836 4292271070
0.051785126 -0.0095810769 0.60492218 4292402656
0.053389322 -0.0095720254 0.60435069 4292073691
0.054946303 -0.0095553081 0.60329521 4291612881
0.040103141 -0.0079068327 0.6034289 4292534243
0.041809272 -0.0079173492 0.60423148 4292666599
0.043382499 -0.007902856 0.60312539 4292732392
0.045048356 -0.0079056807 0.60334098 4292666599
0.046573073 -0.0078844111 0.60171777 4292600035
0.048358597 -0.0079072397 0.60345995 4292073691
0.050080087 -0.0079184361 0.60431445 4292468449
0.041835446 -0.0062684827 0.60460973 4292666082
0.043479543 -0.006267081 0.60447454 4292666852
0.045130473 -0.0062667308 0.60444075 4292666082
0.046592016 -0.0062410366 0.60196251 4292666082
0.048238091 -0.0062409714 0.60195619 4291284429
0.049948841 -0.0062490012 0.60273069 4292534496
