# .PCD v0.7 - Point Cloud Data file format
VERSION 0.7
FIELDS x y z rgba
SIZE 4 4 4 4
TYPE F F F U
COUNT 1 1 1 1
WIDTH 328
HEIGHT 1
VIEWPOINT 0 0 0 1 0 0 0
POINTS 328
DATA ascii
0.1799736 0.038571373 0.60754949 4292929254
0.1815342 0.03854987 0.60721081 4292929252
0.1834529 0.038604114 0.60806519 4292731873
0.18519208 0.038619943 0.60831451 4292731873
0.1867456 0.038597114 0.60795498 4292863459
0.18813388 0.038540844 0.6070686 4292929252
0.18919899 0.038419928 0.60516405 4292863461
0.19039735 0.038327936 0.60371506 4293060586
0.17996016 0.040230237 0.60750413 4292929252
0.18157603 0.040220078 0.60735071 4292929252
0.18346964 0.040271066 0.60812068 4292995045
0.18483834 0.040206958 0.60715258 4292929252
0.18620554 0.040143661 0.60619676 4292797666
0.18783487 0.040137503 0.60610378 4292731873
0.18911274 0.040057003 0.6048882 4292863461
0.19048575 0.039997876 0.60399532 4292929000
0.19199924 0.039969016 0.60355949 4292336863
0.16483045 0.041847788 0.60686332 4292863459
0.16634372 0.041810911 0.60632855 4292995045
0.16788568 0.041781899 0.60590786 4292929252
0.16943859 0.041756153 0.60553449 4292929252
0.17121553 0.041785587 0.60596132 4292995045
0.17251444 0.041698907 0.60470432 4292995045
0.1738755 0.041628752 0.60368693 4292929252
0.17506 0.041518044 0.60208148 4292929252
0.17655225 0.041481707 0.60155457 4293060838
0.17801799 0.041439869 0.6009478 4293060838
0.17971243 0.041451547 0.60111719 4293192424
0.1812087 0.041417722 0.60062665 4293060838
0.1827316 0.041390534 0.60023242 4292995045
0.18411724 0.041333016 0.59939826 4293060838
0.18590793 0.041366644 0.59988594 4292995045
0.18741921 0.041338053 0.59947133 4292929252
0.18901855 0.041329212 0.59934312 4293126633
0.1904079 0.041275006 0.59855705 4293060840
0.16491866 0.043531056 0.60718811 4293126631
0.16618454 0.043427836 0.60574836 4293060838
0.16794564 0.043454789 0.60612428 4292995045
0.1696699 0.043471772 0.60636115 4293060838
0.17126702 0.043456171 0.60614353 4292995045
0.17255346 0.043362796 0.60484111 4293192424
0.1737818 0.043256726 0.60336161 4293060838
0.17527255 0.043217361 0.60281253 4293060838
0.17685352 0.043200769 0.60258108 4293126631
0.17854506 0.043211233 0.60272706 4293192422
0.18006749 0.043180961 0.60230482 4293192422
0.18180342 0.043201972 0.60259789 4293192424
0.18317661 0.043137182 0.60169417 4293192424
0.18456139 0.043076243 0.6008442 4293258217
0.18620479 0.043076221 0.60084385 4293126631
0.18819825 0.043156467 0.60196316 4293060838
0.18994425 0.043179061 0.60227835 4293192426
0.19151889 0.043162655 0.60204947 4293060840
0.19279139 0.043079015 0.60088283 4291613140
0.15878074 0.044865489 0.6028021 4293126629
0.16036086 0.044846263 0.60254377 4293060838
0.16177109 0.044780396 0.60165882 4293126631
0.16318424 0.044716656 0.60080242 4293060838
0.16458295 0.044650272 0.5999105 4293126631
0.16641319 0.044701111 0.60059357 4293192424
0.16821474 0.044743329 0.60116076 4293192424
0.17022739 0.044840336 0.60246414 4293126631
0.17133254 0.044698726 0.6005615 4293258217
0.17269346 0.044625893 0.59958297 4293192424
0.17394133 0.044525497 0.59823406 4293258217
0.17575423 0.044570263 0.59883553 4293258217
0.17739049 0.044569816 0.59882951 4293258215
0.17897426 0.044556312 0.59864807 4293258215
0.18064617 0.044564798 0.59876209 4293258215
0.18199709 0.044494659 0.59781969 4293258215
0.18336281 0.044429347 0.59694219 4293258217
0.18497522 0.044424441 0.59687626 4292797664
0.18659882 0.044422284 0.5968473 4292600285
0.18826517 0.044430248 0.59695429 4292929250
0.18950421 0.0443381 0.59571624 4293126631
0.19071034 0.04423989 0.59439671 4292468703
0.19296908 0.044385456 0.59635246 4291284175
0.158575 0.046454098 0.60202098 4293192424
0.16023991 0.046459369 0.60208929 4293126631
0.16168866 0.046402492 0.60135221 4293192424
0.16336161 0.04641046 0.60145545 4293258217
0.16507167 0.046428703 0.6016919 4293192424
0.16716643 0.046553724 0.60331208 4293324010
0.16866438 0.046511713 0.60276765 4293126631
0.17033884 0.046518724 0.60285854 4293192424
0.17154841 0.046399865 0.60131818 4293126631
0.17294207 0.046332575 0.60044611 4293060838
0.17453615 0.046319742 0.60027981 4293126118
0.17653725 0.046414159 0.60150343 4293191911
0.17835779 0.046459801 0.60209489 4293126629
0.1798649 0.046423711 0.60162717 4293126883
0.18137372 0.046388708 0.60117358 4293126629
0.18252119 0.046262752 0.59954125 4292995043
0.1838569 0.04618632 0.59855074 4292863457
0.18544449 0.046173956 0.59839052 4292797664
0.18714231 0.046189014 0.59858567 4292600285
0.18830384 0.046072595 0.59707689 4292666078
0.18994482 0.04607448 0.59710133 4292797664
0.19155742 0.046069507 0.5970369 4292600289
0.15778543 0.047861338 0.59902346 4293192422
0.15901834 0.047739562 0.59749931 4293126629
0.16090038 0.047813162 0.5984205 4293060838
0.16260095 0.047831889 0.59865487 4292863459
0.16427478 0.047842462 0.59878719 4292995043
0.1661469 0.047910005 0.59963256 4293060836
0.16741206 0.04780291 0.59829217 4292995043
0.16938455 0.047897909 0.59948117 4292929250
0.17051294 0.047754686 0.59768862 4292863459
0.17220414 0.047770303 0.59788406 4292666080
0.17340045 0.047649633 0.5963738 4292797666
0.17553817 0.047787502 0.59809935 4292797664
0.17732805 0.047829002 0.59861875 4292863457
0.1789217 0.047817301 0.5984723 4293060836
0.18005243 0.047683217 0.59679413 4293060836
0.18123503 0.047565158 0.59531653 4293192422
0.18254788 0.047483075 0.59428918 4293324008
0.18431315 0.047519088 0.59473991 4293192422
0.18590076 0.047509067 0.59461451 4293126629
0.18693544 0.047359135 0.59273797 4293060836
0.18822171 0.047274973 0.59168464 4293126631
0.18979217 0.047263023 0.59153503 4293126631
0.19240423 0.047508452 0.59460682 4291349968
0.1584833 0.049718812 0.60167289 4292666078
0.15954983 0.049538959 0.59949636 4292600285
0.16150732 0.049636588 0.60067785 4292600285
0.16344607 0.049726542 0.60176641 4292797664
0.16485184 0.049654171 0.60089064 4292863457
0.16649255 0.049653295 0.60088003 4292929250
0.16788311 0.049578559 0.59997559 4293192422
0.16964266 0.049613189 0.60039467 4293126629
0.17103924 0.049542017 0.59953338 4293192422
0.17284781 0.049590394 0.60011882 4293192424
0.17434452 0.049549237 0.59962076 4293060836
0.17609997 0.049581695 0.60001355 4293126629
0.17763956 0.049553331 0.59967029 4293126629
0.17901275 0.049479499 0.59877682 4293192422
0.18024622 0.049368735 0.59743643 4293192422
0.18149416 0.049263895 0.59616768 4293126629
0.18302809 0.049237851 0.59585249 4293258215
0.18488096 0.049297314 0.5965721 4293126629
0.18683325 0.049382016 0.59759712 4292863457
0.18800895 0.049261764 0.59614187 4292995045
0.18931252 0.049176794 0.59511364 4292995047
0.19083764 0.04915034 0.5947935 4293060840
0.19307616 0.049306508 0.59668338 4291547347
0.15840524 0.051339306 0.60137653 4293192422
0.15871544 0.050911151 0.59636122 4293258215
0.16058686 0.050987408 0.59725446 4293126629
0.16237999 0.051037513 0.59784138 4293192422
0.16400267 0.051033583 0.59779537 4293060836
0.16507897 0.050861392 0.59577835 4293126629
0.16662598 0.050836168 0.59548289 4293126629
0.16847199 0.050901782 0.59625149 4293126629
0.17006253 0.050889689 0.59610981 4293192422
0.17197002 0.050971765 0.59707123 4293192422
0.17354347 0.050954219 0.59686571 4293126629
0.17481996 0.050850622 0.59565222 4292929250
0.17609581 0.050748758 0.594459 4292995043
0.17759958 0.050713837 0.59404993 4292995043
0.17914389 0.050691027 0.59378272 4293060836
0.18063897 0.050654817 0.59335858 4293060836
0.18209593 0.050608654 0.59281784 4292995043
0.18390521 0.050660368 0.5934236 4292995043
0.18560459 0.050681159 0.59366715 4292863459
0.18718903 0.050670478 0.59354204 4292863461
0.18850008 0.050586615 0.5925597 4292863459
0.18973435 0.050483759 0.59135485 4292797666
0.19130555 0.050471522 0.5912115 4292402656
0.19441818 0.050862756 0.59579432 4291152590
0.15948121 0.052795921 0.59923857 4293258217
0.16089915 0.052723438 0.59841591 4293126631
0.1628132 0.052813344 0.59943634 4293126631
0.16431348 0.052768581 0.59892827 4292995045
0.16563092 0.05266656 0.59777033 4292995045
0.16733086 0.052686967 0.59800196 4292995045
0.16864154 0.052585609 0.59685153 4292929250
0.17055762 0.052673157 0.5978452 4292929250
0.17246801 0.052757297 0.59880018 4292863459
0.17448248 0.052871395 0.60009521 4292731871
0.1755048 0.052685533 0.59798568 4292863457
0.17664663 0.052538641 0.59631842 4292929250
0.17823575 0.052526258 0.59617788 4292863457
0.18008697 0.052590638 0.59690863 4292929250
0.18175618 0.052601188 0.59702837 4292731871
0.1832412 0.052558716 0.59654629 4292797664
0.18498734 0.052591234 0.59691536 4292863457
0.18657413 0.052578278 0.59676832 4292666078
0.18818365 0.052571885 0.59669578 4292402908
0.18979195 0.052565277 0.59662074 4292468701
0.19119549 0.05250255 0.59590882 4292666082
0.19304511 0.052562341 0.59658742 4291810773
0.15897287 0.054261535 0.59732848 4292995045
0.16011694 0.054096047 0.59550673 4292929252
0.16168065 0.054074232 0.59526658 4292995045
0.16330098 0.054071605 0.59523767 4292797666
0.16493319 0.054072928 0.59525222 4292731873
0.16651288 0.054057166 0.59507871 4292666080
0.16781497 0.053952463 0.59392613 4292666080
0.1696935 0.054033324 0.59481627 4292731871
0.1717138 0.054157354 0.59618163 4292600285
0.17347156 0.054197028 0.59661835 4292600285
0.17484568 0.054117229 0.5957399 4292600285
0.17594233 0.0539538 0.59394085 4292731871
0.1778111 0.054027982 0.59475744 4292600285
0.17972314 0.05411385 0.59570271 4292534492
0.18165152 0.054203045 0.59668458 4292534746
0.18288472 0.054085061 0.59538579 4292600539
0.18443754 0.054062851 0.59514129 4292600285
0.18603471 0.054053918 0.59504294 4292337113
0.18776309 0.054082926 0.59536231 4292139734
0.18908809 0.053996254 0.59440815 4292205527
0.19022091 0.053856645 0.59287131 4292402908
0.1919511 0.053887092 0.59320647 4291679187
0.19464333 0.05418485 0.5964843 4291152589
0.1600679 0.05628046 0.60144299 4292797666
0.16103351 0.05604396 0.59891564 4292731873
0.16274567 0.056069415 0.59918767 4292666080
0.1641904 0.056003161 0.59847963 4292600287
0.16587579 0.056019485 0.59865409 4292534494
0.16777475 0.056106906 0.59958833 4292600285
0.16905175 0.055986661 0.59830332 4292600285
0.17080817 0.056025971 0.59872341 4292402906
0.17271078 0.056112029 0.59964305 4292402906
0.17434648 0.056110572 0.59962749 4292402906
0.17580552 0.056052815 0.59901029 4292271320
0.17700399 0.055913806 0.59752476 4292271320
0.1790413 0.056039903 0.5988723 4292271574
0.18117638 0.056194045 0.60051954 4292139988
0.18300475 0.056251138 0.60112965 4292205781
0.18422721 0.056122627 0.5997563 4292205781
0.18578327 0.056097113 0.59948367 4292139734
0.1872714 0.056051716 0.59899855 4292139734
0.18896648 0.056068514 0.59917802 4291810769
0.19013244 0.055929374 0.59769112 4291942357
0.19175059 0.05592449 0.59763891 4292008150
0.19367903 0.056009419 0.5985465 4291284175
0.1591783 0.057603691 0.59810036 4292534494
0.16042136 0.057462938 0.59663892 4292402649
0.1621896 0.057511237 0.59714043 4292468442
0.16375342 0.057486814 0.59688681 4292271063
0.16555186 0.057544425 0.59748501 4292205527
0.16751203 0.057656571 0.59864944 4292205781
0.1692532 0.057691906 0.59901631 4292139988
0.17066374 0.057614941 0.59821719 4292139477
0.17226429 0.057602972 0.59809291 4292139477
0.17361902 0.057509802 0.59712553 4292073684
0.17522389 0.057500459 0.59702849 4292007891
0.17646475 0.057372935 0.59570444 4292073684
0.17830314 0.05744024 0.59640324 4291942098
0.18012901 0.057502329 0.59704792 4291811023
0.1821049 0.057610769 0.59817386 4291876816
0.18346444 0.057524011 0.59727305 4291679437
0.18513821 0.057536449 0.59740222 4291613644
0.18645781 0.057439566 0.59639627 4291547851
0.18819998 0.057473402 0.59674758 4291613390
0.18928568 0.057307914 0.59502929 4291547597
0.19074342 0.057256918 0.59449983 4291481806
0.19232142 0.05724258 0.59435093 4291547601
0.16025798 0.059641518 0.60215718 4292139477
0.16164652 0.059546269 0.60119551 4292205270
0.16383801 0.059745744 0.60320944 4292205016
0.16533805 0.059691604 0.60266286 4292073430
0.16683233 0.059636477 0.60210627 4292007891
0.16885249 0.059768572 0.60343993 4291810510
0.17060985 0.059805989 0.6038177 4291678924
0.17181182 0.059649866 0.60224146 4291810510
0.17326243 0.059582211 0.60155839 4291613133
0.17478055 0.059538826 0.60112035 4291678926
0.17648758 0.059560008 0.60133421 4291678926
0.1779314 0.059492782 0.6006555 4291481547
0.17953125 0.059478484 0.60051113 4291613133
0.18114822 0.059470072 0.6004262 4291481545
0.18311432 0.059575394 0.60148954 4291481545
0.18485382 0.059605766 0.60179621 4291415752
0.18686132 0.059721265 0.60296232 4291349959
0.18817472 0.059614848 0.60188788 4291218373
0.18973763 0.05958863 0.60162318 4291218373
0.19115075 0.059516232 0.60089225 4291086789
0.19280504 0.059519514 0.60092539 4291218634
0.15989904 0.061151363 0.6008085 4291810510
0.16129418 0.061057378 0.59988511 4291744717
0.16325888 0.06117871 0.6010772 4291678926
0.16492212 0.061185792 0.60114676 4291481547
0.16652285 0.06116977 0.60098934 4291547338
0.16827215 0.061208099 0.60136592 4291284166
0.17030533 0.061347947 0.60273993 4291415752
0.17151186 0.061190195 0.60119003 4291284166
0.17283185 0.061075527 0.60006344 4291284166
0.17435052 0.061032571 0.59964138 4291152580
0.17631376 0.06114459 0.60074198 4291086787
0.17798907 0.061155602 0.60085016 4291020994
0.17920971 0.061011627 0.59943563 4291218373
0.1803458 0.060841743 0.59776652 4291020994
0.18219948 0.060914822 0.59848452 4290889408
0.18417348 0.061026461 0.59958136 4290889408
0.186692 0.061314974 0.60241598 4290955201
0.18852015 0.061373681 0.60299277 4290692028
0.19004287 0.061332792 0.60259104 4290560442
0.19093731 0.061091594 0.60022128 4290626749
0.19216797 0.060961161 0.59893978 4290626495
0.16252899 0.063178271 0.60447758 4291218373
0.16466241 0.063362956 0.60624462 4291152580
0.16639407 0.063390911 0.60651207 4291086787
0.16774121 0.063273266 0.6053865 4291020224
0.16942774 0.063284688 0.60549575 4291020224
0.17096633 0.063241169 0.60507935 4291151810
0.17252411 0.063205518 0.60473824 4290954431
0.17388351 0.063098542 0.60371476 4290954431
0.17580611 0.063196041 0.60464758 4290822845
0.17788647 0.063347898 0.60610056 4290822845
0.18001881 0.063515291 0.60770214 4290691259
0.18125221 0.063365355 0.60626757 4290691514
0.18246497 0.063210994 0.60479063 4290559928
0.18389863 0.063135237 0.60406584 4290559928
0.18597698 0.063280188 0.60545272 4290559928
0.16430335 0.06487947 0.60492265 4290757052
0.16608423 0.064928807 0.60538268 4290625466
0.16735041 0.064777941 0.60397607 4290691002
0.16917609 0.064844474 0.60459638 4290691002
0.17088807 0.064866565 0.60480237 4290427830
0.17284256 0.064979404 0.60585445 4290427830
0.17427376 0.064895235 0.60506964 4290362036
0.17593233 0.064896524 0.60508168 4290493622
0.17780404 0.064975679 0.6058197 4290296243
0.17988089 0.065127634 0.6072365 4290098864
0.18163671 0.065161653 0.60755366 4289967278
0.1829495 0.065037556 0.60639662 4289967278
0.18436106 0.064950481 0.6055848 4289901998
