# .PCD v0.7 - Point Cloud Data file format
VERSION 0.7
FIELDS x y z rgba
SIZE 4 4 4 4
TYPE F F F U
COUNT 1 1 1 1
WIDTH 226
HEIGHT 1
VIEWPOINT 0 0 0 1 0 0 0
POINTS 226
DATA ascii
-0.21926905 0.03149426 0.56971496 4282659366
-0.21876943 0.031647421 0.57248557 4281541912
-0.21802092 0.031766526 0.5746401 4280818189
-0.21699044 0.031845979 0.57607734 4280686605
-0.21476534 0.031749986 0.57434088 4280226056
-0.21326707 0.031760823 0.57453692 4280160774
-0.21131359 0.031703524 0.57350039 4279700739
-0.21087815 0.031874821 0.57659906 4279372288
-0.20821871 0.031710003 0.57361764 4279174656
-0.20613885 0.031631622 0.57219976 4279174144
-0.21939582 0.032838356 0.56602156 4287001955
-0.21853624 0.032942168 0.56781095 4286867548
-0.21744612 0.033012468 0.56902266 4286868061
-0.21700296 0.03318271 0.57195705 4286474584
-0.21600696 0.033270273 0.57346636 4285948756
-0.21424331 0.033240017 0.57294482 4285554511
-0.21269719 0.033243317 0.57300168 4285225291
-0.21099211 0.033221632 0.5726279 4285160011
-0.21024026 0.033350833 0.57485491 4285685846
-0.20835964 0.033301577 0.5740059 4285752150
-0.20684901 0.033311155 0.57417101 4285486671
-0.20555596 0.03335619 0.57494724 4284827976
-0.20409393 0.033374283 0.57525909 4285945190
-0.20109448 0.033398803 0.57568175 4284038224
-0.21974303 0.03444105 0.56691736 4287920999
-0.21896692 0.034563318 0.56892997 4287657316
-0.21816064 0.034682542 0.57089245 4287394144
-0.21718654 0.034776613 0.57244092 4287394142
-0.21637568 0.034898378 0.57444525 4287394142
-0.21435918 0.034826051 0.5732547 4287262556
-0.21349037 0.034940492 0.57513845 4286999384
-0.21193571 0.034943551 0.57518882 4286736212
-0.21132515 0.035103481 0.57782131 4286999386
-0.20953538 0.03506846 0.57724488 4286933080
-0.20812394 0.035096716 0.57770997 4286537552
-0.20715426 0.035200462 0.57941771 4285814347
-0.2060585 0.035284221 0.58079642 4285813328
-0.20538367 0.035441924 0.58339226 4285813847
-0.20408379 0.035493385 0.58423936 4286274400
-0.20300727 0.035584811 0.58574426 4286734181
-0.20170818 0.035638373 0.58662593 4287065452
-0.19985944 0.035594895 0.58591026 4285818972
-0.19818808 0.035582561 0.58570725 0
-0.21852984 0.035793059 0.5637874 4287789159
-0.21805555 0.035969209 0.566562 4287854695
-0.21694946 0.036042914 0.56772298 4287788902
-0.21551172 0.036062192 0.5680266 4287657314
-0.21445347 0.036145706 0.56934208 4287459676
-0.21250515 0.036079325 0.56829649 4287525469
-0.21141593 0.036158904 0.56954998 4287130711
-0.21035367 0.03624431 0.5708952 4287130459
-0.20966369 0.036395613 0.57327843 4287458654
-0.20818146 0.036410633 0.573515 4287261016
-0.20646863 0.036385249 0.57311517 4286865488
-0.20599355 0.036579262 0.57617116 4286799697
-0.20527412 0.036732547 0.57858557 4286273872
-0.204888 0.036948323 0.58198434 4286075988
-0.20366946 0.037016183 0.58305323 4286404955
-0.20263049 0.03711801 0.58465713 4286537568
-0.20110251 0.037131172 0.58486444 4286735458
-0.19925015 0.037084166 0.58412403 4286078810
-0.1983197 0.037209373 0.58609623 4285292879
-0.21987112 0.037301142 0.56327277 4287197022
-0.21902905 0.037420511 0.56507534 4287394401
-0.21845993 0.03758854 0.56761271 4287263585
-0.21777855 0.037739519 0.56989259 4287394401
-0.21622938 0.03774121 0.56991816 4287525730
-0.21510783 0.037818108 0.57107931 4287262558
-0.21323971 0.037763912 0.57026094 4287262556
-0.21223259 0.037862524 0.57175004 4287196763
-0.21124716 0.037966497 0.57332009 4287327320
-0.21059005 0.038131472 0.57581133 4287393113
-0.20903963 0.038135961 0.57587916 4287326807
-0.20722508 0.038091976 0.57521492 4287128914
-0.20665701 0.038278189 0.57802689 4286339146
-0.20626563 0.038500257 0.58138025 4285879114
-0.20589562 0.038729794 0.58484644 4287392614
-0.20521349 0.038903758 0.58747339 4287195752
-0.20399387 0.038977768 0.58859098 4286998373
-0.20277897 0.039053861 0.58974004 4287261028
-0.20063587 0.038950976 0.58818644 4287196514
-0.19991638 0.03912504 0.59081489 4286736220
-0.19835947 0.039136719 0.59099126 4285621078
-0.1965764 0.039103597 0.59049112 0
-0.21760415 0.038712695 0.56139922 4287394401
-0.21712862 0.038902633 0.56415361 4287262815
-0.21635535 0.03904156 0.56616831 4287328608
-0.21488492 0.03905578 0.56637454 4287263069
-0.21350737 0.03908721 0.56683034 4286933591
-0.2120734 0.039108694 0.56714189 4287262556
-0.21074456 0.039150033 0.56774133 4287196763
-0.20994677 0.039291359 0.56979084 4287130711
-0.20891474 0.039390642 0.57123059 4286933332
-0.20769021 0.039454848 0.57216167 4287524186
-0.20580879 0.039394297 0.57128358 4287195221
-0.20514826 0.039568298 0.57380688 4286733904
-0.20464571 0.039775684 0.57681435 4285944907
-0.2044936 0.04005494 0.58086401 4287195235
-0.2036898 0.040209919 0.58311146 4287787118
-0.20277146 0.040344551 0.58506387 4287260775
-0.20159625 0.040429816 0.58630037 4287129188
-0.2000335 0.040438104 0.58642054 4286867295
-0.1990712 0.040568888 0.58831716 4286998624
-0.19786419 0.040651534 0.58951563 4285620051
-0.19633587 0.040668976 0.58976859 0
-0.2190917 0.040239487 0.56127602 4286999643
-0.21853837 0.040421117 0.56380945 4287263069
-0.21748243 0.040511698 0.56507289 4286868311
-0.21665341 0.040646147 0.56694824 4286999897
-0.21529867 0.040683199 0.56746507 4287131481
-0.21398453 0.040728513 0.56809711 4287130968
-0.21301059 0.040839713 0.56964821 4287196761
-0.21200576 0.040946592 0.57113898 4286999382
-0.21117541 0.041089002 0.57312536 4287262297
-0.20969467 0.041106049 0.57336313 4287063635
-0.20856041 0.041191783 0.57455897 4287261014
-0.20727193 0.041248132 0.57534498 4286800467
-0.20632796 0.041374423 0.57710654 4286273869
-0.20555937 0.041538101 0.57938957 4285944653
-0.20477889 0.041701905 0.5816744 4287260774
-0.2037499 0.041817266 0.58328348 4287852911
-0.20304273 0.042001024 0.5858466 4287392361
-0.20258458 0.042239629 0.58917475 4287589482
-0.20147766 0.042345699 0.59065425 4286933088
-0.20034419 0.042447858 0.59207922 4286538845
-0.19907881 0.042523511 0.59313446 0
-0.19529597 0.042406693 0.59150505 0
-0.21810102 0.041879356 0.56268114 4286407758
-0.2172222 0.042007048 0.56439674 4286276174
-0.21608281 0.042085815 0.56545508 4286473553
-0.21443081 0.042065166 0.56517762 4286802005
-0.21292099 0.042072307 0.56527358 4286933589
-0.21177951 0.042152867 0.56635594 4286933589
-0.21042331 0.042191565 0.56687587 4286275659
-0.20973215 0.042365167 0.56920838 4286538574
-0.20860879 0.042453416 0.57039404 4286735183
-0.20787068 0.042621981 0.57265884 4286339912
-0.20666669 0.042696863 0.57366496 4286274123
-0.20567808 0.042817719 0.57528877 4286076490
-0.20485547 0.042975269 0.57740557 4285879371
-0.2039102 0.043109339 0.57920688 4286142547
-0.20253696 0.043154314 0.57981116 4286405465
-0.20191625 0.043361608 0.5825963 4287063138
-0.20142296 0.043599788 0.58579642 4287261028
-0.20055269 0.043759525 0.5879426 4286866268
-0.19927195 0.043831553 0.5889104 4286341205
-0.19815019 0.043940023 0.59036773 4285226833
-0.19698898 0.044041447 0.59173048 0
-0.21880987 0.04386919 0.56852192 4285946696
-0.21751389 0.043921512 0.56919998 4285880903
-0.2157923 0.043888032 0.56876612 4286209870
-0.21435338 0.043911971 0.56907636 4286144077
-0.21296816 0.043947339 0.56953472 4286144077
-0.21183184 0.044034977 0.57067043 4286209868
-0.2106443 0.044113182 0.57168394 4286143816
-0.20967188 0.044237949 0.57330084 4285945667
-0.20870709 0.044366214 0.57496309 4286010947
-0.20820686 0.044595934 0.57794017 4285879365
-0.20721667 0.044723418 0.57959229 4285484613
-0.20660233 0.044934615 0.58232927 4285155648
-0.20526566 0.044990771 0.58305705 4285155650
-0.20417549 0.045102257 0.58450186 4285747787
-0.20328239 0.045259379 0.58653808 4286142547
-0.20292765 0.045539822 0.59017247 4286603866
-0.2016995 0.045627184 0.5913046 4285619024
-0.20038344 0.045695905 0.59219521 4284569673
-0.19864985 0.045669764 0.59185642 4281349157
-0.19724208 0.045718707 0.59249073 0
-0.21963046 0.045594651 0.57065403 4284893756
-0.21793966 0.045567498 0.57031417 4285091135
-0.21609472 0.045507494 0.56956321 4285222721
-0.21408699 0.045412093 0.56836915 4284827963
-0.21274737 0.045458045 0.56894428 4285683272
-0.21163604 0.045553815 0.57014292 4285420354
-0.2104359 0.045631751 0.57111835 4285222973
-0.20929292 0.045723334 0.57226461 4285354048
-0.20843653 0.045879386 0.57421774 4285419841
-0.20780618 0.046087939 0.57682794 4285156671
-0.20696144 0.04625177 0.5788784 4284827453
-0.2062054 0.046438102 0.58121049 4284827453
-0.20530735 0.0465951 0.58317548 4285156420
-0.20453355 0.046782978 0.58552688 4285156166
-0.20332801 0.046874288 0.58666974 4285221959
-0.2023274 0.047014676 0.58842677 4285222470
-0.20084 0.047043286 0.58878487 4284502597
-0.19927751 0.04705463 0.58892685 4281872419
-0.21766871 0.047408272 0.57371181 4283910464
-0.21568008 0.047316272 0.57259852 4283909692
-0.21471676 0.047449514 0.57421094 4283909692
-0.21435083 0.047717713 0.57745653 4284632129
-0.21290211 0.047747053 0.5778116 4284434750
-0.21111155 0.047699593 0.57723725 4284368955
-0.20980135 0.04776077 0.5779776 4284172605
-0.20949768 0.048053756 0.58152318 4284238400
-0.20879708 0.048259482 0.58401275 4283843642
-0.20778926 0.048396818 0.58567476 4283974717
-0.20639247 0.048444994 0.58625776 4284106561
-0.20544431 0.048600052 0.58813417 4283910209
-0.20410581 0.048664484 0.58891392 4283383351
-0.20308599 0.048806537 0.59063298 4281345565
-0.20137267 0.048782863 0.59034646 4279637000
-0.19959854 0.048743952 0.58987558 4279177478
-0.21920411 0.048970003 0.57362306 4279568900
-0.21731667 0.048898369 0.57278395 4279832072
-0.214745 0.048670609 0.57011604 4279634693
-0.21449377 0.04896928 0.5736146 4280226314
-0.21379589 0.049169637 0.57596153 4280686864
-0.21300314 0.049350984 0.57808578 4281213978
-0.21119018 0.049296897 0.57745224 4281608220
-0.21027178 0.049452387 0.57927358 4281213978
-0.20946327 0.049636282 0.58142769 4280884243
-0.2088172 0.04986177 0.58406901 4280555281
-0.20727986 0.049876276 0.58423895 4279833098
-0.20564978 0.049868528 0.58414817 4279439110
-0.20370016 0.049782552 0.58314109 4280030477
-0.21792275 0.050605875 0.57438135 4278585089
-0.21616881 0.050563116 0.57389605 4278716675
-0.21493596 0.050642509 0.57479715 4278716675
-0.21425034 0.050852962 0.57718581 4278782468
-0.21348509 0.051047496 0.5793938 4279045127
-0.21164489 0.051370181 0.58305633 4278979334
-0.21055983 0.051494867 0.58447152 4279045640
-0.20908624 0.051525705 0.58482152 4278979847
-0.20712316 0.051435463 0.58379728 4278979847
-0.20458254 0.051199291 0.58111668 4278914567
-0.21568912 0.052017238 0.57262254 4278717188
