# .PCD v0.7 - Point Cloud Data file format
VERSION 0.7
FIELDS x y z rgba
SIZE 4 4 4 4
TYPE F F F U
COUNT 1 1 1 1
WIDTH 482
HEIGHT 1
VIEWPOINT 0 0 0 1 0 0 0
POINTS 482
DATA ascii
0.003643139 0.011438857 0.58003134 4291609887
0.0068125781 0.011432572 0.57971263 4291806761
0.0020664586 0.013088228 0.58282691 4291543843
0.0036471104 0.013039649 0.58066362 4292069159
0.0052341884 0.013036549 0.58052564 4291871268
0.0068216743 0.013035674 0.58048666 4291871778
0.0084003573 0.013021483 0.57985473 4291871525
0.010008763 0.013050555 0.58114934 4291675175
0.0020569754 0.014615088 0.58015227 4291674915
0.0036465204 0.014625603 0.58056968 4291805987
0.0052367365 0.014631614 0.58080828 4291871778
0.0068360842 0.014654402 0.58171284 4291937573
0.0083903307 0.014590158 0.57916266 4292069159
0.0099629806 0.014573238 0.57849103 4291937573
0.00047181163 0.01626265 0.58232361 4291739939
0.0020597219 0.016223643 0.58092684 4291937060
0.0036468082 0.016214948 0.58061552 4291739679
0.0052552861 0.016277786 0.5828656 4291937061
0.0068569588 0.016295202 0.58348918 4291871780
0.0084439423 0.016277721 0.58286327 4291871780
0.01001354 0.016237604 0.58142674 4291937573
0.011586515 0.016213207 0.58055317 4291871780
0.013221403 0.016270885 0.58261847 4291805987
-0.0011193355 0.017828193 0.58143258 4291281185
0.00046928591 0.017759928 0.57920629 4291674146
0.0020540918 0.017763996 0.57933897 4291871014
0.0036446578 0.017792642 0.58027315 4291937060
0.0052297609 0.017785328 0.58003461 4291937061
0.0068167578 0.017786359 0.58006829 4291871267
0.008416011 0.017812943 0.58093524 4291871267
0.010008747 0.017819479 0.58114839 4291937060
0.011593902 0.017812578 0.58092332 4292068646
0.01316755 0.017791789 0.58024538 4292002853
0.014749367 0.017785326 0.58003455 4291937318
0.016342901 0.017792873 0.58028072 4291871778
0.017964846 0.017827278 0.58140278 4291872808
-0.0011172633 0.019382669 0.58035618 4291609382
0.00047040434 0.019390365 0.58058667 4291871525
0.0020621927 0.019425001 0.58162373 4291805732
0.0036544781 0.019432113 0.58183664 4291871780
0.005238927 0.019405881 0.58105123 4291805987
0.0068206158 0.019384017 0.58039659 4292002853
0.0084291138 0.019432215 0.58183974 4291937060
0.010030407 0.01945113 0.5824061 4291937060
0.011642044 0.019482171 0.58333552 4292068646
0.013222305 0.019459551 0.58265823 4291937060
0.014818661 0.019462937 0.58275962 4291805987
0.016389577 0.019435497 0.58193797 4291937060
0.017974779 0.019428357 0.58172423 4291937573
0.019606285 0.019468356 0.58292186 4291806502
-0.0026961092 0.020903202 0.57850337 4291215142
-0.0011120924 0.020873096 0.57767016 4291609123
0.00047050044 0.020982765 0.58070529 4291739939
0.0020602043 0.020995686 0.58106291 4291871525
0.0036476413 0.020984313 0.58074814 4291871780
0.0052143177 0.020896642 0.57832181 4291871780
0.0067967814 0.020898325 0.57836843 4291740194
0.0083830282 0.02090881 0.57865858 4291937060
0.0099763181 0.020930739 0.57926548 4291937060
0.011578543 0.020962834 0.5801537 4292068646
0.013160389 0.020954745 0.57992983 4291937060
0.014768908 0.020986296 0.58080304 4291871267
0.016338557 0.020961849 0.58012646 4291937060
0.017910136 0.020943988 0.57963216 4292069159
0.019505862 0.020954972 0.57993615 4292003366
0.021061029 0.020924013 0.57907933 4291805987
0.02269442 0.020969659 0.58034259 4291805987
-0.0026977684 0.022499451 0.57885939 4291937318
-0.0011158535 0.022529166 0.57962388 4291805732
0.00047022942 0.022558197 0.58037078 4291871525
0.0020579593 0.022560488 0.58042973 4291739939
0.0036410484 0.022532066 0.5796985 4291805987
0.0052295201 0.022544093 0.58000791 4291543329
0.0068100831 0.022524362 0.57950032 4291937573
0.0083919503 0.022515582 0.57927442 4292002853
0.0099697355 0.022500377 0.57888323 4291937060
0.011592076 0.022576116 0.58083183 4292068646
0.013195555 0.022601288 0.58147943 4291937060
0.01479988 0.022622341 0.58202106 4292003366
0.016367149 0.02258816 0.58114165 4292003364
0.017955679 0.022586778 0.58110613 4291871778
0.019537237 0.02257756 0.58086896 4291871778
0.021108387 0.022558611 0.58038145 4291937060
0.022695314 0.022557991 0.58036548 4291937061
0.024298975 0.022572998 0.5807516 4291937060
0.02594021 0.022618925 0.5819332 4291937571
-0.004276556 0.024056967 0.57823753 4291608871
-0.0026928815 0.024039214 0.57781082 4291739939
-0.0011122711 0.024037223 0.57776296 4291871525
0.00046826334 0.024044763 0.57794422 4291805732
0.0020475977 0.024026588 0.57750732 4291871525
0.0036298248 0.024043405 0.57791156 4291739939
0.0052239462 0.024104901 0.57938969 4291871268
0.0068005649 0.024075806 0.57869035 4291805987
0.0083699161 0.024036828 0.57775348 4291740194
0.0099354293 0.024000958 0.5768913 4291937573
0.011540919 0.024058256 0.57826853 4291805987
0.013110217 0.02403539 0.57771891 4291937573
0.014715173 0.024075786 0.57868987 4291937571
0.016289219 0.024062671 0.57837462 4292069157
0.017916668 0.024123784 0.57984358 4292003364
0.019482924 0.024099262 0.57925415 4292069157
0.021096112 0.024132119 0.58004391 4291937573
0.022678966 0.024128105 0.57994741 4292003366
0.024254741 0.024117578 0.57969439 4292134440
0.02575336 0.024036329 0.5777415 4292068647
0.027349489 0.024050225 0.57807547 4292003364
0.028998246 0.02410635 0.5794245 4291806501
-0.0042694737 0.025596192 0.57727993 4291806502
-0.0026961674 0.025650993 0.57851589 4291805732
-0.0011152354 0.025685884 0.57930279 4291937318
0.0004693245 0.025683716 0.57925391 4291739939
0.0020548359 0.025696794 0.57954884 4291739939
0.0036492536 0.025761353 0.58100486 4291871525
0.0052476553 0.02580633 0.58201927 4291937061
0.0068283454 0.025763545 0.58105433 4291871780
0.0084096501 0.025738798 0.58049619 4291871780
0.0099890269 0.025716947 0.58000338 4291871780
0.011604249 0.025780722 0.5814417 4291937573
0.013165748 0.025724158 0.58016598 4291871780
0.014751524 0.02572209 0.58011937 4291871778
0.016312758 0.025681788 0.5792104 4292003364
0.017954662 0.025764382 0.58107316 4292069157
0.019565059 0.025792005 0.58169615 4292002851
0.021216866 0.025865959 0.58336407 4291937058
0.022768978 0.025816526 0.58224922 4292002854
0.024352742 0.025807103 0.58203667 4292068644
0.025845578 0.025708385 0.57981026 4292068646
0.027476097 0.025750121 0.58075154 4291871267
0.029043265 0.025731167 0.58032405 4292003364
0.03069677 0.025786703 0.58157659 4291740192
0.032243177 0.025751233 0.58077663 4291609125
-0.002685219 0.027122853 0.57616669 4291805732
-0.0011106922 0.027159389 0.5769428 4291739939
0.00046976507 0.027293781 0.57979769 4291805732
0.0020578415 0.027321972 0.58039653 4291871525
0.0036541813 0.027387539 0.58178937 4291871525
0.005227122 0.027291154 0.5797419 4292003111
0.0068185055 0.027313521 0.580217 4291740194
0.0083974525 0.027287027 0.57965422 4291740194
0.0099768266 0.027270116 0.57929498 4291871780
0.01155477 0.027254468 0.57896256 4291937573
0.013111783 0.027199173 0.57778794 4291805987
0.014705713 0.027224118 0.57831782 4291937573
0.016275512 0.027203882 0.57788795 4292003366
0.017899754 0.027270174 0.57929617 4291871778
0.019514639 0.027312584 0.5801971 4291937058
0.021154717 0.027381226 0.58165526 4292002853
0.022722524 0.027353266 0.5810613 4292002853
0.02428453 0.027322436 0.58040637 4292068646
0.025768314 0.027212778 0.57807696 4291871267
0.027356135 0.027219322 0.57821596 4292134439
0.028948624 0.027229538 0.57843298 4292002854
0.030585771 0.027278526 0.57947361 4291937061
0.032086004 0.027206594 0.57794559 4291542564
-0.0058418061 0.028721217 0.57661527 4291675175
-0.0042678476 0.028743375 0.5770601 4291805987
-0.0026937788 0.028790357 0.57800335 4291937571
-0.0011149301 0.028847186 0.57914424 4291740194
0.00047129692 0.028973907 0.58168834 4291805987
0.0020653009 0.029014356 0.5825004 4291608608
0.0052485308 0.028995227 0.58211637 4291805987
0.0068552941 0.029056549 0.5833475 4291871780
0.0084385816 0.029013999 0.58249325 4291805987
0.010024585 0.028992819 0.58206803 4291871780
0.011601105 0.028953778 0.58128422 4291871780
0.013198366 0.028969673 0.58160335 4291805987
0.014797376 0.028985575 0.58192259 4291937573
0.016375748 0.028961886 0.58144701 4291871778
0.017940195 0.028919945 0.58060497 4291937571
0.019555289 0.028959829 0.5814057 4292002853
0.021204455 0.029040378 0.58302283 4291937060
0.022812363 0.029057104 0.58335865 4292002853
0.024397312 0.029044315 0.58310187 4292002853
0.025874928 0.028913157 0.58046871 4291871267
0.027420281 0.028868482 0.57957178 4291871267
0.028996099 0.028859008 0.57938159 4291871268
0.030671634 0.028944619 0.58110034 4291936807
0.032226339 0.028913388 0.58047336 4291739430
0.033792287 0.0288947 0.58009815 4291476784
-0.0058544893 0.030364247 0.57786715 4291674146
-0.0042675082 0.030319426 0.57701415 4291739681
-0.0026915059 0.030345777 0.57751566 4291871014
-0.001110362 0.030306665 0.57677132 4291805987
0.00046954872 0.030451655 0.57953066 4292003366
0.0020548131 0.030452274 0.5795424 4292069159
0.0036482681 0.030520873 0.58084792 4291806501
0.0052307285 0.030483775 0.5801419 4291740708
0.0068376455 0.030573301 0.5818457 4291674915
0.008401677 0.030473471 0.5799458 4291938087
0.0099676587 0.030411301 0.57876265 4291937573
0.01311725 0.030372744 0.57802886 4291937573
0.01471123 0.030399328 0.57853478 4292134439
0.016330859 0.0304686 0.57985312 4292002853
0.017879121 0.030404247 0.57862842 4292002853
0.019458357 0.030398749 0.57852376 4292068646
0.021088108 0.030467063 0.57982385 4292002853
0.02273098 0.030543447 0.58127755 4291937060
0.024333363 0.030558998 0.58157349 4292068646
0.025798917 0.030411346 0.57876348 4292068646
0.027305206 0.030326013 0.5771395 4291871267
0.028880823 0.030322792 0.57707822 4291937573
0.030520648 0.030383827 0.5782398 4291739939
0.03210637 0.030387642 0.5783124 4291477285
0.033734988 0.030429792 0.57911456 4291542837
-0.0074868817 0.032167133 0.58188689 4291608355
-0.0059004501 0.032195706 0.58240372 4291871014
-0.0043011978 0.032149583 0.58156937 4291937061
-0.0027055887 0.032092534 0.58053738 4291871525
-0.0011168775 0.032071438 0.58015579 4291740194
0.00047100621 0.032136321 0.58132952 4291740194
0.0020618651 0.032147478 0.58153135 4292003366
0.0036568721 0.032185428 0.58221781 4291871780
0.0052619092 0.032261845 0.58360016 4291674401
0.0084479386 0.03223636 0.58313918 4291805987
0.010016745 0.032151982 0.58161283 4291740194
0.011579519 0.032074027 0.58020264 4292003366
0.013180142 0.032107066 0.58080029 4291871780
0.014769374 0.032108232 0.58082139 4291871267
0.016385917 0.032162774 0.58180803 4292002853
0.017936097 0.032088939 0.58047235 4292002853
0.019529257 0.032097749 0.58063173 4291937060
0.021130949 0.032118205 0.58100176 4291871780
0.022766847 0.032184154 0.58219475 4292003366
0.024369843 0.032198008 0.58244538 4292134440
0.025912797 0.032135699 0.58131826 4292002851
0.027453912 0.032078449 0.58028263 4291805475
0.029052677 0.032091137 0.58051211 4291937061
0.030638169 0.032088604 0.58046633 4291871527
0.032252811 0.032115351 0.58095014 4291674674
-0.0074344864 0.03352255 0.5778147 4291871268
-0.0058623245 0.033570461 0.57864052 4291871268
-0.0042742523 0.03352901 0.57792604 4291805223
-0.0026922459 0.03351441 0.57767445 4291871527
-0.0011101949 0.033456981 0.57668453 4291871780
0.00046805298 0.033514999 0.57768458 4292003366
0.0020500845 0.033545408 0.57820874 4291805987
0.0036318239 0.033546634 0.57822984 4291805987
0.0052216589 0.033599205 0.57913601 4291871780
0.0068135513 0.03363746 0.57979542 4291740194
0.0083841747 0.033576097 0.57873768 4291740194
0.0099601364 0.033552203 0.57832587 4291674401
0.011520206 0.033488665 0.57723069 4292200745
0.013152222 0.033624381 0.57956994 4291937573
0.014714149 0.033570986 0.57864958 4291871780
0.016317483 0.033613257 0.57937819 4291937060
0.019441437 0.033534501 0.57802069 4292002853
0.021017596 0.033526633 0.57788509 4291937060
0.02263885 0.033586763 0.57892156 4291937060
0.024182973 0.03353209 0.57797915 4291937060
0.025795272 0.033572849 0.57868171 4292002851
0.027404489 0.033605121 0.579238 4291871268
0.029024577 0.033646468 0.57995063 4292069159
0.030563274 0.033594064 0.57904738 4291806252
0.032199327 0.033648565 0.57998681 4290425134
-0.0090232668 0.035135206 0.57834351 4291739939
-0.007473188 0.035285812 0.58082259 4291739682
-0.0058894865 0.035316125 0.58132154 4291871268
-0.0043003815 0.035324473 0.58145899 4291871268
-0.0027036744 0.035243534 0.58012664 4291871780
-0.001117058 0.035250995 0.58024949 4291805987
0.00046968742 0.035217725 0.57970184 4291740194
0.0020585563 0.035272174 0.58059812 4291871780
0.0036409104 0.035216186 0.57967651 4291739939
0.0052389894 0.035300121 0.58105814 4291805732
0.0068323854 0.035320777 0.58139813 4291937318
0.0084462659 0.035419531 0.58302367 4291805987
0.010029484 0.035378754 0.58235246 4291871780
0.011608532 0.035336465 0.58165634 4292003366
0.014800693 0.03536056 0.58205301 4291871780
0.016406829 0.035390787 0.58255053 4292134952
0.017904831 0.035203062 0.5794605 4291871780
0.019583719 0.035372589 0.58225095 4292002853
0.021163486 0.035351045 0.58189636 4291937060
0.022745609 0.035336178 0.58165163 4292002854
0.024285061 0.035261296 0.58041906 4291937061
0.02586861 0.035255704 0.58032697 4291871265
0.027494043 0.035304539 0.58113086 4291871267
0.029056657 0.035271779 0.58059162 4291937320
0.030667361 0.03529777 0.5810194 4291674677
-0.0089770304 0.036529038 0.57538003 4291674916
-0.0074215336 0.036619693 0.57680798 4291805732
-0.0058488795 0.036651783 0.57731342 4291805732
-0.0042699124 0.036653422 0.57733923 4291805732
-0.0026920557 0.036672112 0.57763362 4291871525
-0.0011145603 0.036755815 0.57895207 4291871780
0.00046841064 0.036703371 0.57812601 4291740194
0.0020487143 0.036684085 0.57782227 4291740194
0.0036246211 0.036637157 0.57708305 4291739939
0.0052150432 0.036720909 0.57840228 4291739939
0.0068040872 0.036758229 0.5789901 4291739939
0.0084035685 0.036827195 0.5800764 4291871525
0.0099766292 0.036776859 0.57928354 4291871780
0.011542997 0.036719028 0.57837266 4292069159
0.013147268 0.036781181 0.5793516 4291740194
0.014705633 0.036715347 0.57831466 4291740194
0.016332081 0.036815774 0.57989651 4291674401
0.017849825 0.036675073 0.57768029 4291608608
0.019508906 0.036824033 0.58002663 4291937573
0.0211014 0.036834367 0.58018935 4292002853
0.022699393 0.03685217 0.58046979 4291805474
0.024231933 0.036768336 0.57914931 4291937060
0.025738414 0.036657672 0.57740623 4292002853
0.027315561 0.036654636 0.57735837 4291937061
0.030528951 0.036720581 0.5783971 4290885428
-0.010598285 0.038274039 0.57796419 4291739941
-0.009030127 0.038328275 0.57878321 4291739941
-0.0058952449 0.038534008 0.58188993 4291805732
-0.004303175 0.038530488 0.58183676 4291805475
-0.0027126542 0.038544834 0.58205342 4292068647
0.00047181975 0.038563389 0.58233362 4291937061
0.0020617745 0.038508568 0.58150578 4291871268
0.0036495714 0.038478747 0.58105546 4291937318
0.0068441276 0.038567606 0.58239728 4291740194
0.0084413234 0.038586494 0.58268249 4291871780
0.010010235 0.038490627 0.58123481 4291871780
0.011602406 0.038498215 0.58134943 4291871780
0.013176398 0.038450927 0.58063531 4292003366
0.014742802 0.038394045 0.57977641 4291937573
0.016341072 0.03842314 0.58021575 4291937573
0.017950578 0.03847117 0.58094102 4291937573
0.019601138 0.038592212 0.58276886 4292134439
0.021214839 0.038627937 0.58330834 4292068646
0.022795441 0.038602613 0.58292592 4291937061
0.024356153 0.038549121 0.58211815 4291805475
0.025853014 0.038407337 0.5799771 4291871268
0.027427271 0.038390283 0.57971954 4291740457
0.028997662 0.038369969 0.57941282 4291609398
-0.0089723812 0.039656229 0.57508206 4291805736
-0.0074205128 0.039769772 0.57672864 4291805732
-0.0058474154 0.039800137 0.57716894 4291740194
-0.0042706719 0.039818961 0.57744193 4291674401
-0.0026992054 0.039937966 0.57916772 4291871267
-0.0011147113 0.039928507 0.57903051 4291739681
0.00046946615 0.039955966 0.57942873 4291871267
0.0020480016 0.039831329 0.57762128 4291739682
0.0036296358 0.03984927 0.57788146 4291871268
0.0052099507 0.039846234 0.57783747 4291739939
0.0067963758 0.039880469 0.57833391 4291871780
0.0083578769 0.039783135 0.57692242 4291871780
0.0099296598 0.039757889 0.57655627 4292003366
0.01151341 0.039780911 0.57689017 4291871780
0.013113162 0.039847013 0.57784873 4291805987
0.014681443 0.039813545 0.57736337 4291871780
0.016257668 0.039806027 0.57725435 4291937573
0.017859781 0.039857619 0.57800251 4291871780
0.019460969 0.039898917 0.57860142 4291937573
0.021079175 0.039966274 0.57957822 4291937060
0.022687754 0.040007226 0.58017212 4291937060
0.024228746 0.039931443 0.57907313 4292002853
0.025728352 0.039800934 0.5771805 4291871525
0.027278168 0.039758697 0.57656801 4291609133
0.028974047 0.039922331 0.57894099 4290293811
-0.010609609 0.04148018 0.57858169 4291477285
-0.009032852 0.041507155 0.57895792 4291543330
-0.0058910688 0.041687809 0.58147776 4291739939
-0.0043009962 0.041692425 0.58154213 4291871525
-0.0027118539 0.041716769 0.5818817 4291805732
-0.0011176286 0.041621007 0.58054596 4291871525
0.00047084322 0.04166276 0.58112836 4292002854
0.0020590581 0.041634891 0.58073962 4291739682
0.0036439532 0.041593406 0.58016098 4291805475
0.0052196686 0.041504096 0.57891524 4291871525
0.0068011046 0.041491266 0.57873631 4291871780
0.0084029585 0.041584324 0.58003432 4291937573
0.010009577 0.041667651 0.58119661 4291740194
0.011598074 0.041663047 0.58113235 4291805987
0.01319898 0.041698754 0.58163041 4291805987
0.014775002 0.041656617 0.58104271 4291805987
0.016357271 0.041638568 0.58079094 4291740194
0.017951533 0.041651543 0.5809719 4291805987
0.019543825 0.041658204 0.58106482 4291937060
0.021168895 0.041728485 0.58204514 4291805475
0.022722004 0.041657001 0.58104801 4291871014
0.02428871 0.041618161 0.58050627 4291806502
0.025822351 0.041530903 0.5792892 4291805734
0.02747868 0.04163966 0.58080614 4291806781
-0.0089980336 0.042924706 0.5767262 4291544107
-0.0074255988 0.042954311 0.57712394 4291543589
-0.005840282 0.042905252 0.57646483 4291806504
-0.004268222 0.042953324 0.57711071 4291805732
-0.0026939732 0.043022867 0.57804507 4291739939
-0.0011114224 0.042969059 0.57732213 4291871780
0.0004683953 0.043027483 0.57810706 4291805987
0.0020475623 0.042982101 0.57749736 4291805987
0.0036276306 0.042986929 0.57756221 4291871780
0.0051926617 0.042864695 0.57591993 4291871525
0.006771225 0.042885073 0.57619369 4291805474
0.0083585326 0.042942677 0.57696766 4291937060
0.0099588912 0.043038387 0.57825357 4291871267
0.011524479 0.04297819 0.57744479 4291739682
0.013124869 0.04304665 0.57836461 4291739939
0.01468755 0.042990007 0.57760358 4291871525
0.016300648 0.043077603 0.57878047 4291871525
0.017880425 0.043069426 0.57867062 4291805475
0.019462565 0.043067805 0.57864887 4291805475
0.021045106 0.043067258 0.57864147 4291937061
0.022587985 0.042991295 0.57762086 4291805475
0.024170376 0.042995553 0.57767808 4291871527
0.02575081 0.042996015 0.57768428 4291411753
-0.0042942986 0.044803999 0.58063656 4291543332
-0.0027023577 0.044742849 0.57984412 4291739939
-0.0011168093 0.044764165 0.58012033 4291937573
0.00047040125 0.044799853 0.58058286 4291871780
0.0020603782 0.044840682 0.58111197 4292003366
0.0036500604 0.044842329 0.58113331 4291871780
0.0052325218 0.044781178 0.5803408 4291805987
0.00680906 0.044709601 0.57941324 4291805474
0.013199301 0.044881776 0.58164454 4291871525
0.014744295 0.044742156 0.57983512 4291871525
0.016355021 0.044809747 0.58071107 4291805475
0.017976856 0.044893116 0.58179146 4291805475
0.019578787 0.044917256 0.58210433 4291805475
0.021126121 0.044821937 0.58086902 4291871268
0.022645304 0.044684399 0.5790866 4291805475
0.024254316 0.044730514 0.57968426 4291674666
-0.0011098963 0.04606409 0.57652944 4291740711
0.00046704005 0.046056494 0.57643437 4291806502
0.0020452053 0.046088312 0.57683259 4291871780
0.0036258146 0.046123505 0.57727307 4292003366
0.0052031218 0.046108086 0.57708007 4291871780
0.0067658611 0.046000794 0.57573724 4291740194
0.0083267754 0.045923959 0.57477558 4291805987
0.0099044032 0.045949064 0.57508981 4291805987
0.011531835 0.046166677 0.57781339 4291871780
0.013116086 0.04617979 0.57797754 4291871525
0.014651546 0.046036784 0.57618767 4291871268
0.017818855 0.046075962 0.57667804 4291739682
0.019409213 0.046106696 0.57706267 4291937061
0.020967888 0.046063203 0.57651836 4291739939
0.022502614 0.045976862 0.57543772 4291739939
0.024130013 0.046078786 0.57671338 4291609386
0.00047032157 0.047967926 0.58048451 4291740709
0.0020562408 0.047923353 0.57994509 4291806502
0.0036399637 0.047888704 0.57952577 4291937573
0.0052236011 0.047874294 0.57935143 4291871527
0.0067911143 0.047753215 0.57788616 4291937318
0.008369497 0.047739856 0.57772452 4291871525
0.0099481465 0.047732022 0.57762969 4291937573
0.011597018 0.048017088 0.58107942 4291871780
0.01319568 0.048050601 0.58148497 4291739939
0.014776777 0.048019819 0.5811125 4291805732
0.016347663 0.047965061 0.58044982 4291674146
0.017972609 0.048064567 0.58165401 4291805732
0.019490929 0.047885928 0.57949221 4291937318
0.021030199 0.047781762 0.57823163 4291871527
0.022511782 0.047570266 0.57567221 4291608871
0.024202215 0.047798898 0.578439 4291609913
0.0051858588 0.049101669 0.57516539 4291871780
0.0067610964 0.049115878 0.57533181 4291805732
0.0083301431 0.049088236 0.57500803 4291739939
0.0099017667 0.049082145 0.57493669 4291805732
0.011502719 0.049203184 0.5763545 4291805732
0.013096459 0.04926791 0.57711267 4291805732
0.014684431 0.049299344 0.57748091 4291739939
0.016263274 0.049297001 0.57745343 4291739939
0.017844249 0.049300957 0.57749981 4291937318
0.0052290196 0.051096708 0.57995236 4292003629
0.0068086036 0.05104579 0.57937443 4291609125
0.0083911885 0.051032346 0.57922184 4291740709
0.0099752853 0.051030908 0.57920551 4291871525
0.011574446 0.051096361 0.57994843 4291805732
0.013169437 0.051129848 0.58032852 4291739682
0.014775781 0.051195472 0.58107334 4291805732
0.016386658 0.051262524 0.58183438 4291739941
0.019521248 0.051135585 0.58039361 4291674918
0.021077173 0.051058896 0.57952321 4291543340
0.022615479 0.050953235 0.57832396 4291279932
0.0068063946 0.052613504 0.57918644 4291675442
0.0083676744 0.05246928 0.57759875 4291806763
0.0099325823 0.052389994 0.57672596 4291609122
0.011510252 0.052390538 0.57673192 4291871780
0.013079018 0.052355308 0.57634413 4291805736
0.014657904 0.052363809 0.57643771 4291739941
0.016228955 0.052345384 0.57623488 4291674146
0.017824503 0.052402243 0.57686079 4291739941
0.020990783 0.052428324 0.5771479 4291609135
0.011569438 0.054245606 0.57969749 4291608871
0.013150963 0.054228477 0.57951444 4291674146
0.014755673 0.054300357 0.58028257 4291805734
0.016312787 0.054200128 0.57921147 4291739941
0.017908808 0.054235473 0.57958919 4291739939
