# .PCD v0.7 - Point Cloud Data file format
VERSION 0.7
FIELDS x y z rgba
SIZE 4 4 4 4
TYPE F F F U
COUNT 1 1 1 1
WIDTH 711
HEIGHT 1
VIEWPOINT 0 0 0 1 0 0 0
POINTS 711
DATA ascii
0.13171425 0.077814102 0.57808763 4290230201
0.13012005 0.079387493 0.57803023 4290229688
0.1314847 0.079257004 0.57708013 4290229688
0.13314016 0.079302832 0.5774138 4290163895
0.13528487 0.079635583 0.57983661 4290032822
0.12615126 0.081468828 0.58160126 4290953670
0.12718251 0.081111908 0.57905322 4290756032
0.12816969 0.080736004 0.5763697 4290427067
0.1328771 0.080722451 0.5762729 4290032822
0.13463938 0.080834113 0.57707006 4290164408
0.13720758 0.081421413 0.58126277 4290295994
0.12455814 0.083058216 0.58159077 4291282376
0.12600966 0.082966484 0.58094841 4290492344
0.12762456 0.082983248 0.58106583 4290624444
0.12903214 0.08286646 0.58024806 4290558651
0.13030571 0.082667515 0.57885498 4290361785
0.13172394 0.082563996 0.57813013 4290361787
0.13396643 0.08297345 0.58099723 4290295994
0.13545682 0.082912959 0.58057362 4290295994
0.1379365 0.083452381 0.58435076 4290427580
0.12017305 0.08492291 0.58347213 4291480268
0.12142532 0.08468318 0.58182508 4291348682
0.12252297 0.084343225 0.57948935 4291282887
0.12379311 0.08412917 0.57801867 4291611339
0.12526608 0.084056616 0.57752019 4290493371
0.12705049 0.084192261 0.57845217 4290756543
0.12869857 0.08423534 0.57874811 4290690750
0.13014993 0.084150173 0.57816297 4290624959
0.13113737 0.083770692 0.57555574 4290559166
0.13319549 0.084076062 0.57765377 4290427580
0.13492367 0.084168442 0.5782885 4290230201
0.13723741 0.084619738 0.58138919 4290361787
0.13870873 0.084547207 0.58089083 4290690752
0.15005261 0.085579626 0.5879842 4294836222
0.15148506 0.085480377 0.58730227 4294836222
0.15270115 0.085262403 0.5858047 4294836222
0.15402019 0.085105836 0.58472896 4294836222
0.11936635 0.087094814 0.58735597 4291677132
0.12047559 0.086736716 0.58494103 4291545546
0.12186262 0.086585388 0.58392048 4291348167
0.12329968 0.086473055 0.5831629 4291480266
0.12482771 0.086426571 0.58284944 4291611852
0.12671016 0.086623572 0.58417797 4290822336
0.12815733 0.086521775 0.5834915 4290756543
0.12999502 0.086682901 0.5845781 4290953922
0.13126899 0.086468786 0.58313411 4290888129
0.13242953 0.086185984 0.58122694 4290690750
0.13395086 0.086141907 0.5809297 4290493371
0.13555618 0.086152248 0.58099943 4290295992
0.13759692 0.086435877 0.58291221 4290361785
0.13922291 0.086455449 0.58304417 4290624957
0.1415544 0.086907722 0.58609426 4290954181
0.15039809 0.087388717 0.589338 4294836222
0.15182909 0.087284632 0.5886361 4294836222
0.15323007 0.087165661 0.58783376 4294835967
0.15479006 0.08713866 0.58765167 4294835967
0.15571387 0.086757779 0.58508307 4294835967
0.15586935 0.085960902 0.57970905 4294770175
0.15643181 0.085402265 0.57594168 4294572799
0.1163509 0.088852502 0.58835626 4291743440
0.1176297 0.088603511 0.58670747 4291809231
0.11891404 0.088365331 0.58513033 4291611852
0.12019293 0.088129483 0.58356863 4291743438
0.12155328 0.087958775 0.58243823 4291743438
0.12265418 0.08760716 0.58010995 4291743438
0.12403897 0.087464705 0.57916665 4291677645
0.1257062 0.087522492 0.57954931 4291743438
0.12738094 0.087584011 0.57995665 4290690750
0.12927006 0.087789603 0.58131802 4290953922
0.13081171 0.087757088 0.58110273 4290888129
0.13207167 0.087538652 0.5796563 4290756543
0.13364424 0.087530136 0.57959992 4290559164
0.13499656 0.087379277 0.57860094 4290295992
0.13676596 0.087498724 0.5793919 4290361785
0.13853438 0.087614834 0.58016074 4290559164
0.14090793 0.088106677 0.58341759 4290757056
0.14324751 0.088566504 0.58646244 4294770175
0.14522947 0.088797487 0.58799195 4294835967
0.14701013 0.088901676 0.58868188 4294836222
0.14860655 0.088893406 0.5886271 4294836222
0.14964372 0.088554353 0.58638197 4294835967
0.15097971 0.088397458 0.58534306 4294835967
0.15224782 0.088204533 0.58406556 4294835967
0.15335488 0.087923273 0.58220315 4294705151
0.1542571 0.087531559 0.57960933 4294639103
0.1547478 0.086916685 0.5755378 4294507519
0.11678969 0.09080302 0.5905751 4292072405
0.11808675 0.090558857 0.58898711 4291875026
0.11929319 0.09025272 0.58699602 4291875026
0.120716 0.090116225 0.58610827 4291875026
0.12222732 0.090048529 0.58566797 4291809233
0.12347829 0.08979325 0.58400768 4291809233
0.12476343 0.089569025 0.58254933 4291809233
0.12627019 0.089507565 0.58214957 4291743440
0.12786415 0.08950866 0.58215672 4291611854
0.12942643 0.089487828 0.58202124 4290822336
0.13072281 0.089285895 0.58070785 4290888129
0.13211556 0.089153834 0.57984895 4290822336
0.13381121 0.089226879 0.58032405 4290493371
0.13546129 0.089268193 0.58059275 4290295992
0.13731864 0.089443557 0.58173329 4290295992
0.13932705 0.089712165 0.5834803 4290427578
0.14132862 0.089970335 0.58515942 4290427837
0.1434834 0.090319164 0.58742815 4294835967
0.14530766 0.090454519 0.58830851 4294835967
0.14732647 0.090706691 0.58994859 4294835967
0.1486626 0.090537637 0.58884907 4294835967
0.15003735 0.090395465 0.58792442 4294770175
0.15132283 0.090203106 0.58667332 4294573567
0.15292816 0.090203442 0.58667552 4294507519
0.15359122 0.089653753 0.58310038 4294441727
0.15445369 0.089230567 0.58034801 4294244348
0.15578605 0.0890847 0.57939929 4294178555
0.15688998 0.088812441 0.57762855 4294046969
0.15817934 0.088649549 0.57656914 4293849076
0.11620351 0.091954589 0.5876109 4292203991
0.11744501 0.09166906 0.58578628 4292138198
0.11886244 0.091526672 0.58487642 4292072405
0.1204422 0.091511413 0.5847789 4291875026
0.12199918 0.091479473 0.58457482 4291940819
0.12308379 0.091098741 0.58214182 4291743438
0.12433129 0.090846747 0.58053154 4291743438
0.12548161 0.090531014 0.57851392 4291677647
0.12705243 0.090522729 0.57846099 4291809231
0.12830515 0.090290792 0.57697886 4290756543
0.12974821 0.090196826 0.57637841 4290822336
0.13292404 0.090212174 0.57647645 4290559164
0.13467649 0.090329953 0.57722908 4290295992
0.13662936 0.090577848 0.5788132 4290164406
0.13857025 0.090812229 0.58031094 4290296505
0.14066401 0.091140337 0.58240765 4290033849
0.14262438 0.091375642 0.5839113 4294705151
0.14438914 0.091481797 0.58458966 4294705151
0.1459917 0.091483988 0.58460367 4294705151
0.14761588 0.091499552 0.58470309 4294639359
0.14901224 0.091375045 0.58390749 4294573311
0.15057458 0.091353908 0.58377242 4294375934
0.15147932 0.090938427 0.58111739 4294244348
0.15281622 0.090788312 0.58015811 4294178555
0.15380506 0.090436637 0.57791084 4294046969
0.15511772 0.090280578 0.5769136 4293783797
0.15607809 0.089924693 0.57463938 4293717490
0.1572005 0.089668334 0.57300121 4293585904
0.11671072 0.093970306 0.59017575 4292270043
0.11773007 0.093497783 0.58720809 4292269784
0.11907259 0.093291171 0.5859105 4292138198
0.12075622 0.093353763 0.58630359 4292072405
0.12259313 0.093531653 0.58742082 4291940819
0.12401953 0.093395784 0.58656752 4291743440
0.12518401 0.093068674 0.58451313 4291611852
0.12632667 0.092733793 0.58240992 4291611854
0.1276347 0.092527136 0.58111203 4291611852
0.12899005 0.092359453 0.58005887 4291677645
0.13036604 0.092210434 0.57912296 4290690750
0.13191168 0.092183545 0.5789541 4290756543
0.13360627 0.09226016 0.57943529 4290427578
0.13550654 0.09247534 0.58078671 4290361272
0.13734463 0.092643589 0.58184338 4290229686
0.1393166 0.092897259 0.58343655 4290098872
0.14118004 0.093073629 0.58454424 4292139225
0.14302497 0.09323398 0.58555132 4294705151
0.14442971 0.09310703 0.58475399 4294705151
0.14605564 0.093123868 0.58485973 4294639359
0.14764909 0.093119867 0.58483464 4294376189
0.14942706 0.09323106 0.58553296 4294244348
0.15090783 0.093156457 0.58506441 4293981176
0.15213585 0.092929028 0.58363605 4293915383
0.15379798 0.092968717 0.58388531 4293718004
0.15476806 0.092593573 0.58152926 4293717490
0.15599589 0.092378691 0.58017969 4293454318
0.15699399 0.092033453 0.57801145 4293322732
0.15822844 0.091832295 0.57674807 4293125353
0.15916851 0.091465943 0.57444721 4292993254
0.11628713 0.095237717 0.58803374 4292467422
0.11703313 0.094541006 0.58373195 4292269784
0.11844723 0.094395466 0.58283335 4292203991
0.12027316 0.09457764 0.58395815 4292072405
0.12210969 0.094763279 0.58510435 4291875026
0.12366117 0.094725743 0.5848726 4291809231
0.12495785 0.094496489 0.58345711 4291611852
0.12627707 0.094289854 0.58218127 4291611852
0.12744378 0.093975894 0.58024275 4291546059
0.1287438 0.093766764 0.57895148 4291677645
0.13041916 0.093832761 0.57935899 4290361785
0.13196716 0.093806617 0.57919759 4290493371
0.13384101 0.094009988 0.58045328 4290624957
0.13534124 0.093949251 0.58007824 4290295479
0.13719706 0.094133884 0.58121824 4290229686
0.13902786 0.09429732 0.58222735 4290164665
0.14109504 0.094615571 0.58419234 4293389292
0.14282742 0.09470468 0.58474255 4294507519
0.14425452 0.094591647 0.58404464 4294507519
0.14530699 0.094238125 0.58186185 4294375934
0.14693747 0.094263077 0.58201593 4294112762
0.14826004 0.094092064 0.58096004 4293981176
0.15006854 0.094229802 0.58181047 4293718004
0.1513325 0.094026327 0.58055413 4293520625
0.15284637 0.093980722 0.58027256 4293323246
0.15408185 0.093766667 0.57895088 4293388525
0.15493433 0.093326241 0.57623154 4293191146
0.15645292 0.093291886 0.57601941 4293190633
0.15779825 0.093155935 0.57517999 4292927461
0.15976793 0.093387619 0.57661051 4293388012
0.16019782 0.092723519 0.57251012 4294309114
0.1177828 0.096753545 0.58747113 4292401370
0.11902551 0.096458368 0.58567888 4292203991
0.12083789 0.096626557 0.58670008 4291940819
0.12268686 0.096819229 0.58786994 4291743440
0.12451778 0.096992843 0.58892411 4291677645
0.12575026 0.096701823 0.58715707 4291480266
0.12736046 0.096704952 0.58717608 4291480266
0.12842442 0.096298397 0.58470756 4291480266
0.1298175 0.096145608 0.58377981 4291611852
0.13112152 0.095931366 0.582479 4291677645
0.13299648 0.096134976 0.58371526 4290559164
0.13491949 0.096368067 0.58513057 4290559164
0.13662905 0.096445017 0.58559781 4290230199
0.13826659 0.096469946 0.58574915 4290295994
0.1399786 0.096545666 0.58620894 4290164667
0.14197376 0.096812747 0.5878306 4293981431
0.14373547 0.09691643 0.58846015 4294310141
0.14507949 0.096739322 0.58738476 4294310141
0.14612541 0.096369475 0.5851391 4294046969
0.14736135 0.096131615 0.58369488 4293849590
0.14871868 0.095977195 0.58275723 4293849076
0.15039676 0.096030846 0.58308303 4293585390
0.15174837 0.095877111 0.58214957 4293388525
0.15324907 0.095819771 0.58180141 4293125353
0.15462787 0.095688194 0.58100247 4293059560
0.15583058 0.095451422 0.57956487 4293059047
0.15750891 0.095507823 0.5799073 4294177528
0.15939784 0.095689528 0.58101058 4294769151
0.16188395 0.095281973 0.57853597 0
0.11811459 0.098637566 0.58912599 4292466909
0.11923245 0.098230898 0.5866971 4292203737
0.12075476 0.098163813 0.58629644 4291940565
0.12222793 0.098059073 0.58567089 4291743440
0.12395088 0.098154843 0.58624285 4291677645
0.12536313 0.098005258 0.58534944 4291546059
0.12711546 0.098121971 0.58604652 4291414473
0.12828104 0.09778849 0.58405477 4291348680
0.12960739 0.097584255 0.58283496 4291546059
0.1307679 0.097261645 0.58090812 4291809231
0.13208248 0.097059995 0.57970375 4290361785
0.13388681 0.097218752 0.58065194 4290756543
0.13549767 0.097234957 0.58074874 4290361785
0.1372795 0.09737204 0.58156747 4290295992
0.139056 0.097502254 0.58234519 4290098872
0.14135268 0.097990125 0.58525908 4293849845
0.14327593 0.098211087 0.58657879 4294178555
0.14484674 0.098188244 0.58644235 4294046969
0.1458192 0.097764745 0.58391297 4293915383
0.14712735 0.097573042 0.58276796 4293520625
0.14819017 0.097224489 0.58068621 4293323246
0.1496125 0.097116709 0.58004248 4293256939
0.15132354 0.097196631 0.5805198 4293125352
0.15262815 0.097016536 0.57944417 4292927974
0.15414312 0.096972488 0.57918108 4294243320
0.15530708 0.096710756 0.57761788 4294703871
0.15714793 0.096871547 0.57857823 4294243061
0.15898298 0.097025618 0.57949841 4289176998
0.16052999 0.097002581 0.57936084 4289506217
0.16095206 0.096306875 0.57520562 0
0.12148961 0.10037468 0.58986437 4292138198
0.12297662 0.10027155 0.58925831 4291677647
0.12458602 0.10026959 0.58924681 4291546061
0.1259678 0.10008683 0.58817279 4291414473
0.12753738 0.10005601 0.58799171 4291414473
0.12862903 0.09965568 0.58563912 4291414473
0.13034999 0.099746771 0.58617443 4291480264
0.13153648 0.099431619 0.58432239 4291743436
0.13306449 0.0993791 0.58401376 4290690750
0.1345935 0.099328563 0.58371675 4290624957
0.13627118 0.099387653 0.58406401 4290559164
0.13784328 0.099369258 0.58395588 4290164665
0.13929509 0.099265546 0.58334643 4291810262
0.14137432 0.099606246 0.58534861 4293915638
0.1432834 0.099820785 0.58660936 4293915383
0.14482887 0.09978006 0.58637005 4293783797
0.146184 0.099610515 0.5853737 4293520625
0.14745609 0.099388696 0.58407015 4293257453
0.1487232 0.099168286 0.58277488 4293256939
0.14999136 0.098953277 0.58151132 4293388012
0.15162463 0.098981105 0.58167487 4294374907
0.15324907 0.099002637 0.58180141 4294835455
0.15489475 0.099037327 0.58200526 4291413964
0.15639199 0.098977365 0.58165288 4289439656
0.15764743 0.098767102 0.58041728 4289834414
0.15937699 0.09885513 0.58093458 4290097325
0.16039261 0.098502971 0.57886505 4290097325
0.16130528 0.098095059 0.57646793 0
0.11996876 0.10206699 0.59032023 4293849073
0.12103698 0.10160819 0.58766675 4291941076
0.12254809 0.10152836 0.58720499 4291743440
0.12409963 0.10148364 0.58694637 4291677645
0.12548633 0.10130699 0.58592469 4291611852
0.12685126 0.10111746 0.5848285 4291480266
0.1277491 0.10056493 0.58163285 4291414471
0.12934218 0.10056657 0.58164233 4291414471
0.13082609 0.10048432 0.58116663 4291414471
0.13219041 0.10031328 0.58017743 4291875022
0.13375178 0.10029408 0.58006632 4290624957
0.13546515 0.10038795 0.58060926 4290690750
0.13726278 0.10054137 0.5814966 4290493630
0.13851529 0.10029658 0.58008081 4291547088
0.14024116 0.10039619 0.58065689 4293784052
0.14201342 0.1005264 0.58140999 4293849845
0.14344449 0.1004149 0.58076513 4293783797
0.14494875 0.1003565 0.58042735 4293783283
0.14649384 0.10032734 0.58025867 4293388525
0.14788039 0.10019138 0.57947236 4294374907
0.14890383 0.099814899 0.57729495 4294703871
0.1506536 0.099928111 0.5779497 4293650924
0.15210928 0.099845909 0.5774743 4289505965
0.15361901 0.099800512 0.57721174 4289900205
0.15507074 0.099718757 0.57673889 4290097582
0.15687265 0.099861547 0.57756472 4290097582
0.15835436 0.0997997 0.57720703 4289768617
0.15950118 0.099530116 0.57564783 4289834150
0.1219232 0.10397141 0.59196955 4294835967
0.12328023 0.10375074 0.59071314 4292664540
0.12474757 0.10362739 0.59001088 4291743438
0.1261059 0.10341782 0.58881766 4291546059
0.12757012 0.10329928 0.58814269 4291546059
0.12838024 0.1026606 0.58450639 4291480264
0.12977625 0.10250041 0.58359432 4291546057
0.13141267 0.10253169 0.58377242 4291612365
0.13305157 0.10256413 0.58395708 4291941330
0.1347563 0.10264593 0.58442283 4290888642
0.13618769 0.10252005 0.58370614 4290954435
0.13801481 0.10269154 0.58468252 4290954951
0.13911843 0.10232694 0.58260667 4292994536
0.14062133 0.10226096 0.58223099 4293718004
0.14228654 0.10231316 0.58252817 4293849590
0.1435826 0.1021017 0.58132422 4293783797
0.14524764 0.10215439 0.58162421 4294835967
0.14681673 0.10213919 0.58153766 4294835455
0.14817598 0.10197988 0.58063066 4291414221
0.14971852 0.10194878 0.58045352 4289769135
0.1510662 0.10178702 0.57953256 4290097586
0.15242606 0.10163674 0.57867694 4290360754
0.15368898 0.10142557 0.57747465 4290229168
0.155453 0.10154605 0.57816058 4290097837
0.15740933 0.10178845 0.57954067 4289637286
0.15907747 0.10184151 0.57984281 4289373602
0.16049412 0.10173412 0.57923138 4289373601
0.16135825 0.10128201 0.57665724 4289110427
0.16220216 0.10082609 0.57406145 4288781462
0.11514817 0.10531806 0.59044135 4294901502
0.11685309 0.10539909 0.59089565 4294836222
0.11857095 0.10548945 0.59140217 4294835967
0.12016141 0.10546555 0.59126818 4294835967
0.12156816 0.10528316 0.59024572 4294705151
0.12284631 0.10499568 0.58863395 4294639359
0.12392286 0.10454553 0.58611035 4294573567
0.12542605 0.10446221 0.58564323 4293322731
0.12702443 0.10445929 0.58562684 4291941076
0.12808284 0.10401791 0.58315235 4291677904
0.12912905 0.10357761 0.58068395 4291677904
0.13069846 0.10356259 0.58059967 4291809490
0.13233054 0.10359698 0.58079249 4291875283
0.13409801 0.10373528 0.58156788 4292401370
0.13537945 0.10349878 0.58024198 4290954181
0.13710149 0.1036007 0.58081335 4291218125
0.13849096 0.10345186 0.57997888 4293520880
0.13997878 0.10337901 0.57957053 4293914869
0.14149089 0.10332554 0.57927072 4294704383
0.14274454 0.10308661 0.57793123 4294835455
0.14440431 0.10314297 0.57824719 4292269273
0.14605352 0.10319066 0.57851458 4289900723
0.14784934 0.10333979 0.57935065 4290032307
0.1497585 0.10356416 0.58060849 4290360756
0.15081929 0.10320328 0.57858533 4290229423
0.1519171 0.10287496 0.57674468 4290097837
0.15297695 0.10252795 0.57479924 4289768872
0.15493427 0.1027834 0.57623136 4289571493
0.15696502 0.1030819 0.57790482 4289242528
0.15847056 0.10303298 0.57763058 4288913050
0.16016553 0.10310699 0.57804549 4288847255
0.16122267 0.10277294 0.57617271 4288584083
0.16244897 0.10255216 0.57493496 4288189579
0.11321913 0.1066374 0.58880848 4294836222
0.11496384 0.10676195 0.58949614 4294835967
0.11674918 0.10692025 0.59037024 4294835967
0.118613 0.10714514 0.59161198 4294835967
0.12021594 0.10713147 0.59153652 4294573567
0.12178149 0.1070853 0.59128153 4294441982
0.12315118 0.10687037 0.5900948 4294375934
0.1243259 0.10649399 0.58801657 4294310141
0.12586714 0.10643716 0.58770281 4294507005
0.1276658 0.10659672 0.58858383 4294243833
0.1288846 0.10627415 0.58680272 4293783282
0.12999965 0.10587503 0.58459896 4292993766
0.1313466 0.10567217 0.58347887 4292730592
0.13302767 0.10573979 0.58385217 4292270041
0.13461214 0.10572991 0.58379763 4292205020
0.1358659 0.10546356 0.58232695 4291810262
0.13743807 0.10544768 0.58223927 4291875285
0.13900299 0.10542666 0.58212322 4294638591
0.1406493 0.10546715 0.5823468 4294835967
0.14208718 0.10535218 0.58171195 4292335323
0.14344215 0.10517898 0.58075565 4289966516
0.14531125 0.10538242 0.58187896 4290426551
0.1467818 0.10529555 0.58139932 4290623926
0.14834292 0.10527481 0.58128476 4290492340
0.15053807 0.1056997 0.58363086 4290097837
0.15172173 0.10541292 0.58204734 4289768872
0.1529104 0.10513552 0.58051568 4289571493
0.15411682 0.10487591 0.57908225 4289242526
0.15646979 0.10539389 0.58194226 4288913561
0.15801692 0.10536407 0.58177763 4288847255
0.15952224 0.10530727 0.58146399 4288584083
0.16105972 0.10527261 0.58127266 4288518290
0.16256578 0.10521828 0.58097267 4288057993
0.16402431 0.10513455 0.58051032 4288123786
0.10884929 0.10870938 0.59131807 4294836222
0.11010608 0.10835444 0.58938742 4294836222
0.11123809 0.10788872 0.58685416 4294836222
0.11431962 0.10776713 0.58619279 4294835967
0.11617079 0.10799742 0.58744544 4294573567
0.11772957 0.10795333 0.58720559 4294441727
0.11918334 0.10781543 0.58645546 4294375934
0.1205202 0.10757683 0.58515763 4294244348
0.12215456 0.10760656 0.58531934 4294178555
0.12321395 0.10713558 0.58275747 4294046969
0.12486055 0.10718068 0.58300281 4293981176
0.12654467 0.10725646 0.58341497 4294046969
0.12814507 0.10726027 0.58343571 4293981176
0.12965231 0.10718696 0.58303696 4293783797
0.13103703 0.10701538 0.58210367 4293652211
0.13266441 0.10704372 0.58225781 4293389039
0.13394856 0.10679772 0.58091974 4293191915
0.13520581 0.10653631 0.57949775 4293585390
0.13681906 0.10655821 0.5796169 4293783282
0.13823722 0.10642941 0.57891631 4292796128
0.13996767 0.10654122 0.57952452 4290097586
0.14130084 0.10635152 0.57849264 4290295479
0.14273097 0.10623819 0.57787621 4290623928
0.14413664 0.10610935 0.57717538 4290623926
0.14538513 0.10586884 0.57586712 4290360754
0.14717117 0.10602071 0.57669324 4289966251
0.14936338 0.10645889 0.57907665 4289571491
0.15124951 0.10667198 0.58023578 4289176731
0.15275325 0.10661376 0.57991904 4288913813
0.15419279 0.1065124 0.5793677 4288913300
0.15589686 0.10659397 0.57981139 4288650127
0.15719067 0.10639618 0.57873559 4288452748
0.15846591 0.10618993 0.57761365 4288123783
0.16022108 0.10630618 0.578246 4288123784
0.16219652 0.10656485 0.57965302 4287860612
0.16401117 0.10671391 0.58046383 4287663235
0.10718896 0.11028273 0.59108168 4294836222
0.10872199 0.11019781 0.59062654 4294836222
0.11009385 0.1099544 0.58932191 4294835967
0.11153447 0.10978571 0.58841777 4294705151
0.11290794 0.10955665 0.58719009 4294639359
0.11477119 0.1098026 0.58850831 4294376447
0.116298 0.10972432 0.58808875 4294310654
0.11784689 0.10966872 0.58779079 4294178555
0.11914159 0.10938127 0.58625007 4294112762
0.12063403 0.10928055 0.58571029 4293915383
0.12220269 0.10925063 0.58554995 4293783797
0.12366185 0.10912486 0.58487582 4293849076
0.12511255 0.10899493 0.58417946 4293914869
0.1267641 0.10904105 0.58442664 4293718004
0.12849604 0.1091543 0.5850336 4293783797
0.13056314 0.10954598 0.58713287 4293783797
0.1320125 0.10941615 0.58643705 4293980662
0.13348986 0.10931235 0.5858807 4294835455
0.13440123 0.10875303 0.58288294 4294967039
0.13591197 0.10868614 0.58252442 4291875026
0.13757162 0.10873849 0.58280498 4290032309
0.13898411 0.10859653 0.58204412 4290163379
0.14049914 0.108537 0.58172506 4290361524
0.14198266 0.10845471 0.58128405 4290492595
0.14366303 0.10852297 0.5816499 4290295216
0.14487003 0.10823605 0.5801121 4289637286
0.14627452 0.10810132 0.57938999 4289439905
0.14824668 0.10838448 0.58090764 4289176733
0.15014617 0.1086091 0.58211148 4289110681
0.15200059 0.10879672 0.58311713 4288847507
0.15370847 0.10887665 0.58354551 4288584334
0.15529077 0.10886691 0.58349329 4288386955
0.15701635 0.10895679 0.58397502 4288255369
0.15839599 0.1088072 0.58317327 4288123783
0.15997316 0.10879496 0.58310765 4287926405
0.16154926 0.10878222 0.5830394 4287729026
0.10654243 0.11122462 0.58751649 4294770175
0.10774735 0.11081104 0.58533186 4294770175
0.10942582 0.11088945 0.58574605 4294507775
0.11105619 0.11091756 0.58589453 4294441982
0.11261609 0.11087549 0.58567232 4294310141
0.1144096 0.11106137 0.58665419 4294178555
0.11588144 0.11093418 0.58598232 4294046969
0.11744583 0.11089785 0.5857904 4293981176
0.11875127 0.11062127 0.58432943 4293718004
0.11996143 0.11026444 0.58244461 4293520625
0.12132979 0.11006051 0.58136737 4293585904
0.12260662 0.10977988 0.57988501 4293585904
0.12434813 0.10991716 0.58061016 4293388525
0.12577887 0.10977975 0.57988435 4293585904
0.12762167 0.11000093 0.58105266 4293520111
0.12962599 0.11035419 0.58291864 4294704383
0.1315209 0.11060683 0.58425319 4294967039
0.132965 0.11047884 0.5835771 4291348169
0.13400258 0.11002012 0.58115399 4289900721
0.13525985 0.10975042 0.57972938 4290032307
0.13678366 0.10970072 0.57946688 4290360754
0.13801736 0.10942218 0.57799554 4290294961
0.13954088 0.1093771 0.57775742 4289900458
0.14114478 0.10939533 0.57785374 4289571493
0.14308003 0.10966714 0.5792895 4289374112
0.14423065 0.10933817 0.57755178 4289110940
0.14579615 0.10932745 0.57749516 4288847766
0.1481964 0.10993619 0.58071065 4288650128
0.14981557 0.10995873 0.58082974 4288584335
0.15160768 0.1101064 0.58160979 4288321162
0.15276615 0.1097956 0.57996804 4288255623
0.15441914 0.10984296 0.5802182 4288058244
0.15606202 0.10988224 0.58042568 4287926658
0.15831444 0.11034556 0.58287305 4287795072
0.15981933 0.11028382 0.58254695 4287729026
0.10790991 0.11258173 0.58621496 4294441727
0.10949457 0.11256235 0.58611405 4294244348
0.11135364 0.11282156 0.58746374 4294112762
0.1129516 0.11281262 0.58741719 4294046969
0.11467583 0.11292826 0.58801931 4293849590
0.11619305 0.11283967 0.58755803 4293783283
0.11788902 0.11292472 0.58800089 4293454832
0.11947469 0.11290324 0.58788908 4293323246
0.12071096 0.11255655 0.58608383 4293191660
0.1219128 0.11218726 0.58416092 4293191146
0.12330949 0.1120045 0.58320928 4293322219
0.12489758 0.11199805 0.58317572 4293388012
0.12643747 0.11194908 0.58292073 4294506493
0.12807322 0.11198515 0.58310854 4294967039
0.13003202 0.11229932 0.58474445 4292005331
0.13189067 0.11252045 0.58589584 4290228918
0.13343769 0.11247356 0.5856517 4290491831
0.13469461 0.11218617 0.58415526 4290492340
0.13611759 0.11204221 0.58340567 4290360496
0.13737501 0.1117669 0.58197212 4290031531
0.13874052 0.11158483 0.58102405 4289636773
0.14003973 0.11135413 0.57982284 4289176733
0.14190491 0.11157363 0.58096576 4288913561
0.14365199 0.11169644 0.5816052 4288781973
0.14586601 0.11217563 0.58410037 4288518542
0.14758995 0.11227166 0.58460039 4288518542
0.14963235 0.11260526 0.58633745 4288123783
0.15124892 0.11261474 0.5863868 4288189576
0.15281828 0.11258923 0.586254 4287926658
0.15369543 0.11205956 0.58349603 4287729279
0.15531899 0.1120794 0.58359933 4287860865
0.10756101 0.11381605 0.58431959 4294046969
0.11051068 0.11356224 0.58301657 4293849590
0.11208548 0.11354203 0.5829128 4293717490
0.11371297 0.113575 0.58308208 4293520111
0.11539592 0.11366169 0.58352715 4293388525
0.11701861 0.11368748 0.58365953 4293191146
0.11903862 0.11409338 0.58574337 4293191146
0.12031553 0.11378572 0.5841639 4292993767
0.12173048 0.11361497 0.5832873 4293191146
0.12277658 0.11310884 0.58068883 4294506235
0.12437274 0.11311589 0.58072507 4294572026
0.12574518 0.11292189 0.57972908 4293387752
0.1273049 0.11289878 0.57961047 4290031793
0.12893897 0.11294138 0.57982916 4290294450
0.13077329 0.11315621 0.58093208 4290557876
0.13225558 0.11306494 0.58046353 4290492082
0.13376191 0.11299614 0.58011025 4289965738
0.13499048 0.11269707 0.5785749 4289636773
0.13658719 0.1127087 0.57863456 4289242013
0.13802834 0.11259317 0.57804149 4288913048
0.13976213 0.11271629 0.57867354 4288781716
0.14142279 0.11277831 0.57899195 4288518544
0.14298356 0.11276019 0.57889891 4288452749
0.14524154 0.11328627 0.58159977 4288255369
0.14704035 0.1134467 0.58242339 4288255369
0.14903991 0.1137569 0.58401597 4287926658
0.15064082 0.11375948 0.5840292 4287597693
0.15278281 0.11416634 0.58611798 4287663232
0.15350728 0.11351649 0.58278167 4287597439
0.10933195 0.11559688 0.58524358 4293454832
0.11102389 0.1156918 0.58572412 4293257453
0.11249916 0.11556144 0.58506417 4293191660
0.11393939 0.11539926 0.58424312 4293256939
0.11559211 0.1154538 0.58451921 4292993767
0.11743455 0.11569377 0.58573413 4292730595
0.1193703 0.11601795 0.5873754 4293322732
0.12084264 0.11588912 0.58672315 4294374907
0.12216932 0.11562581 0.58539003 4294440699
0.12343159 0.11530913 0.58378679 4291873743
0.12467678 0.1149848 0.58214474 4290031793
0.12625137 0.11496861 0.58206278 4290097071
0.12785618 0.11497999 0.58212042 4290360243
0.1295888 0.11510461 0.58275133 4290228910
0.13093191 0.11488445 0.58163673 4290031531
0.13228603 0.11467911 0.5805971 4289834152
0.13399599 0.11478347 0.58112544 4289307806
0.13559692 0.11479307 0.58117408 4288978841
0.13735443 0.11493348 0.58188492 4288847509
0.13898455 0.11496529 0.58204597 4288584337
0.14086351 0.11519988 0.58323365 4288321163
0.1427183 0.11540967 0.58429581 4288123783
0.14436741 0.11545035 0.58450174 4288057990
0.14630978 0.11572208 0.58587742 4287992451
0.10928413 0.11714645 0.58498758 4293125353
0.11038493 0.1166189 0.58235317 4292993767
0.1119645 0.11660498 0.58228368 4292993767
0.11342061 0.11646467 0.58158296 4292730595
0.11518069 0.11663605 0.58243877 4292927460
0.116768 0.1166302 0.58240956 4294440953
0.11849419 0.11676134 0.58306444 4294506746
0.11995866 0.11663453 0.5824312 4291480007
0.12159812 0.11667897 0.58265311 4289637031
0.12275121 0.11626159 0.58056885 4289899945
0.12394288 0.11589094 0.57871801 4290097324
0.12683968 0.11564551 0.57749236 4289965736
0.12853208 0.11574703 0.57799935 4289637025
0.1301654 0.11579355 0.57823163 4289373851
0.13167131 0.11572697 0.57789916 4289044886
0.1333503 0.11581227 0.57832515 4288650127
0.13487245 0.11576097 0.57806897 4288518541
0.13658467 0.1158721 0.57862389 4288518795
0.13841687 0.11608131 0.57966864 4288387209
0.14056125 0.11654461 0.5819822 4288189830
0.14254472 0.11686561 0.58358514 4287926658
0.14439248 0.11706948 0.58460319 4287860865
0.14570957 0.11684335 0.58347398 4287729279
0.11079787 0.11865407 0.58453172 4292599009
0.11222977 0.11847778 0.58366323 4292599009
0.1137392 0.11838712 0.58321661 4294111477
0.1152733 0.11832429 0.58290708 4294506233
0.11700875 0.11846705 0.58361036 4291874511
0.11826827 0.11813057 0.58195275 4289702826
0.12012764 0.11839423 0.58325166 4289965739
0.12164241 0.11831581 0.5828653 4290097324
0.12350492 0.11857326 0.58413363 4290031531
0.12451037 0.11801182 0.58136773 4289834150
0.12612109 0.11803098 0.58146214 4289571232
0.12767875 0.11800063 0.5813126 4289373851
0.12955397 0.11826089 0.58259475 4289110678
0.13116227 0.11827414 0.58266002 4288913299
0.13309787 0.11857867 0.58416027 4288650381
0.13457532 0.11847265 0.58363795 4288387209
0.13623448 0.11852719 0.58390665 4288189828
0.13760893 0.11833565 0.58296305 4288124035
0.13958749 0.11866204 0.584571 4287860863
0.1414738 0.11890351 0.58576053 4287860863
0.11032545 0.11974024 0.58203936 4293782512
0.11466666 0.11928766 0.57983947 4289636520
0.11615457 0.11918695 0.57934994 4289570981
0.11931077 0.1191737 0.5792855 4290097322
0.12137181 0.11964341 0.58156866 4289965988
0.12313804 0.11981411 0.58239841 4289702816
0.12438814 0.11948466 0.58079702 4289373850
0.12563607 0.11916146 0.57922602 4289242265
0.12709375 0.11904278 0.5786491 4289110678
0.12896122 0.11930612 0.57992917 4288716174
0.13094467 0.11966906 0.58169341 4288518793
0.13310416 0.12018224 0.58418787 4288321414
0.13445179 0.11995889 0.58310217 4288058242
0.13612105 0.12002438 0.58342052 4287926656
0.13753751 0.11986802 0.5826605 4287926656
0.13971591 0.1203717 0.58510882 4287729279
0.11214226 0.12157595 0.58320808 4289768621
0.11360671 0.1214361 0.58253723 4289834153
0.11512623 0.12135817 0.58216339 4289899945
0.11671163 0.12135088 0.58212841 4289834150
0.11813647 0.12117907 0.58130425 4289702564
0.11992593 0.12138087 0.58227229 4289637025
0.12175167 0.12161364 0.58338886 4289505439
0.12373473 0.12199548 0.58522058 4289308057
0.12534517 0.12200487 0.58526564 4289044885
0.12692103 0.12198079 0.58515012 4288847760
0.12835427 0.12182195 0.58438814 4288584586
0.13004211 0.12190569 0.58478987 4288321414
0.13182196 0.12207261 0.5855906 4288189828
0.11228275 0.12332556 0.58393878 4290294961
0.11336515 0.12276796 0.58129859 4289965738
0.11510272 0.1229255 0.58204454 4289702564
0.11661179 0.12283804 0.58163041 4289702818
0.1184366 0.12308104 0.58278102 4289373853
0.11988635 0.12293302 0.58208013 4289242265
0.1216666 0.12312333 0.58298123 4289044885
0.12314165 0.12300383 0.58241546 4288847760
0.12496788 0.12323372 0.58350396 4288584588
0.12657163 0.12324118 0.58353925 4288387207
0.12806384 0.1231412 0.58306587 4288254851
0.12948091 0.12297232 0.58226621 4288123265
0.13126414 0.12315106 0.58311254 4287860863
0.11585844 0.12533513 0.58586597 4289242265
0.11768636 0.12557562 0.58699012 4289110678
0.11918653 0.12546459 0.58647114 4288847506
0.12091841 0.12559721 0.58709103 4288847760
0.1224596 0.12553087 0.58678097 4288584588
0.12390516 0.12536949 0.58602661 4288387207
0.12566783 0.12552899 0.58677214 4288058242
0.11387049 0.1265095 0.58388978 4289242267
0.11520752 0.1262245 0.58257443 4288979092
0.11716793 0.12662098 0.58440429 4288847758
0.11878371 0.12663934 0.58448905 4288584586
0.12069106 0.12696394 0.58598721 4288453000
0.12218308 0.12684885 0.58545601 4288255621
0.12369628 0.12675843 0.58503866 4288124035
0.12524156 0.12670277 0.58478183 4287926656
0.12769322 0.12755392 0.58871019 4287729277
0.11582603 0.12850426 0.58570206 4288584588
0.1176951 0.12879643 0.58703369 4288584586
0.11938063 0.12888256 0.58742625 4288321414
0.1190245 0.13010012 0.58567387 4287926656
