# .PCD v0.7 - Point Cloud Data file format
VERSION 0.7
FIELDS x y z rgba
SIZE 4 4 4 4
TYPE F F F U
COUNT 1 1 1 1
WIDTH 704
HEIGHT 1
VIEWPOINT 0 0 0 1 0 0 0
POINTS 704
DATA ascii
0.046313174 0.087089792 0.59835994 4291218134
0.047908753 0.08701504 0.59784639 4291678936
0.049404055 0.086769126 0.59615678 4292007899
0.05098502 0.08668457 0.59557581 4292007898
0.052546702 0.086573474 0.59481251 4292271070
0.05414762 0.086531751 0.59452587 4292073945
0.055783533 0.086546756 0.59462899 4292468703
0.057373848 0.086492173 0.59425396 4292666082
0.059034329 0.086543463 0.59460634 4292600289
0.060672723 0.086560495 0.59472334 4292600287
0.062408503 0.086711936 0.59576386 4292534494
0.046392996 0.088879436 0.59939122 4291350234
0.047947511 0.088722087 0.59833008 4291482071
0.049486149 0.088546716 0.59714741 4291942106
0.051004961 0.08834821 0.59580874 4292205277
0.052575376 0.08824861 0.59513706 4292205531
0.054197758 0.088239618 0.59507638 4291942105
0.055831887 0.088249713 0.59514445 4292600289
0.057530515 0.088358283 0.59587663 4292731875
0.059153229 0.088347495 0.59580392 4292534494
0.060968012 0.088616468 0.59761781 4292534494
0.062652431 0.088686854 0.5980925 4292600287
0.064613312 0.089135028 0.60111493 4292534494
0.044826176 0.090666085 0.60036528 4291021273
0.046230923 0.090202756 0.59729725 4291152857
0.047737345 0.089962661 0.59570742 4291810522
0.049267836 0.08978229 0.59451306 4292073692
0.050724227 0.089482725 0.59252942 4292007899
0.052335426 0.089466348 0.59242094 4292205277
0.053903531 0.089379497 0.59184587 4292139738
0.055552956 0.089428619 0.59217113 4292337115
0.05721179 0.089489676 0.59257543 4292666080
0.058893837 0.089582682 0.59319127 4292731873
0.060692657 0.089843556 0.59491873 4292666080
0.062385231 0.089937642 0.59554172 4292666080
0.064205751 0.09020669 0.5973233 4292534494
0.066127241 0.090600729 0.59993249 4292468701
0.045059375 0.09278851 0.60348856 4290955480
0.046503097 0.092377238 0.60081369 4291416282
0.04803523 0.092163675 0.59942472 4291744729
0.049578387 0.091984667 0.59826046 4291942106
0.051061112 0.091708563 0.59646469 4292271070
0.052608781 0.091562577 0.59551519 4292468703
0.054201167 0.091500863 0.59511381 4292073945
0.055768859 0.09140227 0.59447259 4292600289
0.057498686 0.091567457 0.59554696 4292797668
0.059154082 0.091608286 0.5958125 4292666080
0.061070602 0.092040472 0.59862339 4292666080
0.062755205 0.092109688 0.59907359 4292731873
0.064683996 0.092524663 0.60177255 4292534494
0.043392383 0.094403937 0.60326278 4290757848
0.044769268 0.093831241 0.59960312 4291087064
0.046193961 0.093395665 0.5968197 4291416027
0.047716863 0.09318161 0.59545183 4291482071
0.049254257 0.093009062 0.59434921 4292139485
0.050826125 0.092910551 0.59371972 4292402656
0.052420907 0.092858732 0.59338856 4292468703
0.054025248 0.092826448 0.59318227 4292139738
0.055596445 0.092740767 0.59263474 4292402910
0.057155482 0.092640214 0.5919922 4292731875
0.058825154 0.0927196 0.59249949 4292601059
0.060673237 0.093068391 0.59472835 4292535264
0.062484134 0.093343422 0.59648585 4292535264
0.064313658 0.093631566 0.59832716 4292535264
0.066139057 0.093899556 0.60003966 4292337885
0.044866826 0.09567941 0.60090971 4291087064
0.046265166 0.09517467 0.5977397 4291416282
0.047758698 0.094893515 0.59597391 4291613657
0.04937138 0.094859846 0.59576249 4292139485
0.051045459 0.09494254 0.59628183 4292271070
0.052693818 0.094973743 0.59647781 4292337117
0.054372475 0.09505605 0.5969947 4292073945
0.055962548 0.094983205 0.59653723 4292468703
0.057474855 0.094786234 0.59530014 4292731875
0.059045557 0.094693765 0.59471941 4292731875
0.06086649 0.09499681 0.59662265 4292666080
0.062755868 0.095388062 0.59907991 4292600287
0.064489901 0.095529281 0.59996682 4292535264
0.066295944 0.095767513 0.60146302 4292403678
0.043249521 0.097382545 0.6012767 4290428882
0.04462323 0.09679471 0.59764719 4291020501
0.046086084 0.096434958 0.59542596 4291415512
0.047552567 0.096107095 0.59340161 4291810522
0.049166124 0.09608832 0.59328568 4292139485
0.050779514 0.096070431 0.59317523 4292271070
0.052366432 0.096005112 0.59277189 4292402910
0.053924959 0.095893234 0.59208113 4292337117
0.05552445 0.095858596 0.59186727 4292205531
0.057113156 0.095807828 0.59155381 4292863461
0.058737684 0.095818304 0.59161848 4292731875
0.060508113 0.096059836 0.59310979 4292731875
0.062353749 0.096405037 0.59524119 4292600287
0.064019062 0.096460946 0.59558642 4292534494
0.065795548 0.09667746 0.59692323 4292535264
0.067706473 0.097076237 0.59938544 4292601057
0.04492237 0.099089332 0.60165364 4291020501
0.046406932 0.098746382 0.59957129 4291481303
0.047807463 0.098254129 0.59658241 4291678936
0.049380634 0.09813749 0.59587419 4291810520
0.050946515 0.098014273 0.59512603 4292073691
0.052538317 0.097946994 0.59471756 4292402910
0.054044101 0.097728238 0.59338927 4292073945
0.055665821 0.097725764 0.59337425 4292468703
0.057335794 0.097805724 0.59385979 4292600287
0.059068959 0.097986124 0.59495515 4292666080
0.060766649 0.098099574 0.595644 4292731873
0.062561505 0.098359875 0.59722447 4292600287
0.064238094 0.098425701 0.59762418 4292534494
0.06608475 0.098742373 0.59954697 4292469471
0.043360773 0.10093092 0.60282338 4290494159
0.044763841 0.10037958 0.5995304 4291020755
0.046281971 0.1001161 0.59795678 4291415510
0.047690567 0.099641763 0.59512371 4291613143
0.049188804 0.099379852 0.59355938 4292007899
0.05069077 0.099141963 0.59213859 4292205277
0.052169327 0.098874435 0.59054071 4292271070
0.053625491 0.098581821 0.58879304 4292402910
0.05523885 0.09858682 0.5888229 4292073945
0.056984808 0.098821484 0.59022444 4292666080
0.058747958 0.09907221 0.59172195 4292731873
0.060455482 0.099218197 0.59259391 4292666080
0.062273979 0.099533938 0.59447968 4292600287
0.064054355 0.099774212 0.59591478 4292600287
0.065897562 0.10009802 0.59784877 4292600287
0.067842826 0.10055742 0.60059255 4292666850
0.044982322 0.10251743 0.60245657 4290823376
0.046421938 0.10205945 0.59976512 4291415510
0.047805499 0.10151369 0.59655792 4291547350
0.049285028 0.10120102 0.59472048 4291876313
0.050780572 0.10094017 0.59318757 4292336863
0.052323416 0.10078658 0.59228498 4292337115
0.053885661 0.10067847 0.59164965 4292337115
0.05548349 0.10064121 0.59143066 4292073943
0.057178166 0.10077674 0.59222716 4292534494
0.058898594 0.10094895 0.59323919 4292666080
0.060630955 0.10113183 0.59431392 4292600287
0.062516965 0.10155476 0.59679925 4292600287
0.064415559 0.10197607 0.59927517 4292534494
0.066207282 0.10221149 0.60065866 4292600289
0.068044297 0.10250375 0.6023761 4293192426
0.074981689 0.10297967 0.60517293 4293127403
0.0765673 0.10288594 0.60462213 4293126633
0.04488213 0.10393336 0.60111469 4290889169
0.046284072 0.10339206 0.59798396 4291218385
0.047686201 0.10288809 0.59506923 4291481555
0.049140606 0.10252648 0.59297776 4292007898
0.050577369 0.10215234 0.59081388 4292139738
0.052048001 0.10186765 0.58916736 4292139738
0.053538118 0.10163707 0.5878337 4292468701
0.055136431 0.10161934 0.58773118 4292139736
0.056805722 0.10172971 0.58836955 4292600287
0.058588251 0.10203122 0.59011334 4292666080
0.060331721 0.10225036 0.59138077 4292534494
0.062222142 0.10270061 0.59398484 4292666080
0.064077005 0.10307073 0.59612554 4292666082
0.065846615 0.10328876 0.59738654 4293060840
0.067585684 0.10344949 0.59831613 4293389805
0.06928163 0.10353816 0.59882897 4293324012
0.070889965 0.10349483 0.59857839 4293258219
0.072545774 0.10352121 0.59873098 4293192426
0.074114397 0.10342475 0.59817308 4293258219
0.075801633 0.10349442 0.59857601 4293192426
0.077416219 0.10346403 0.59840024 4293126633
0.079176985 0.10362623 0.59933835 4293258219
0.080798887 0.10360379 0.59920853 4293126631
0.082348533 0.10349144 0.59855878 4293126631
0.08379256 0.1032533 0.5971815 4293060838
0.045027353 0.10591923 0.60305965 4290889168
0.046370011 0.10522277 0.59909427 4291349971
0.047852002 0.10487922 0.59713823 4291481555
0.049357031 0.10460717 0.59558934 4291876312
0.050799724 0.10422464 0.59341133 4292139738
0.052331895 0.10404366 0.59238094 4292534494
0.053839915 0.103827 0.59114736 4292534494
0.055450778 0.10381552 0.59108198 4292139736
0.057176117 0.10401293 0.59220594 4292600287
0.059013274 0.10439727 0.59439427 4292600287
0.060825929 0.10471883 0.59622508 4292600287
0.062658831 0.10505755 0.59815359 4292666080
0.064459309 0.10532603 0.59968221 4293126631
0.066127151 0.10536984 0.59993166 4293389805
0.067821883 0.10545335 0.60040712 4293389805
0.069483481 0.1054826 0.60057366 4293324012
0.071101397 0.10544573 0.60036373 4293258219
0.072736681 0.10543569 0.60030657 4293258219
0.07443653 0.10551762 0.60077304 4293126633
0.076123305 0.10557788 0.60111612 4293060840
0.077679895 0.10545884 0.60043836 4293258219
0.079267643 0.10538618 0.60002464 4293192426
0.080960728 0.10545365 0.60040879 4293126631
0.08247155 0.10528576 0.59945291 4293126631
0.083892435 0.10501184 0.5978933 4293060838
0.085526139 0.10500969 0.59788108 4293060838
0.043352716 0.10750668 0.60271132 4290494411
0.044727128 0.10685159 0.59903872 4290889166
0.046182103 0.10642845 0.59666651 4291086799
0.047793787 0.10638302 0.59641176 4291481555
0.049341612 0.10620314 0.59540331 4291876312
0.050718054 0.10567765 0.59245729 4292337117
0.052194942 0.10538751 0.59083068 4292468703
0.053666953 0.10510525 0.5892483 4292468701
0.055402007 0.1053396 0.59056211 4292205529
0.057097957 0.10548841 0.59139639 4292534494
0.058922835 0.10586067 0.59348333 4292731873
0.060669076 0.10607547 0.59468758 4292731873
0.062364537 0.10619259 0.59534419 4292929252
0.063963704 0.10614394 0.59507143 4293192424
0.065639958 0.10622247 0.59551167 4293192426
0.067317724 0.10629956 0.59594393 4293324012
0.068985097 0.106357 0.59626591 4293126633
0.07044217 0.10609504 0.59479731 4293192426
0.072039761 0.10605178 0.59455478 4293258219
0.073726684 0.10613903 0.5950439 4293192426
0.07538671 0.10618462 0.59529948 4293192426
0.077041201 0.10622065 0.59550148 4293126633
0.07865613 0.10620178 0.59539568 4293192426
0.080370866 0.10631569 0.59603435 4293258219
0.081783161 0.10603296 0.59444928 4293126633
0.08317209 0.10573155 0.59275949 4293126631
0.084725417 0.10564665 0.59228355 4293060838
0.04481503 0.10870338 0.60021597 4290692039
0.046356976 0.10846973 0.59892583 4291218383
0.048017021 0.10851892 0.59919745 4291415762
0.049516018 0.10821293 0.59750783 4291744726
0.050927527 0.10774139 0.59490424 4292205277
0.052440193 0.10750642 0.59360683 4292534496
0.05402787 0.10743474 0.59321105 4292468701
0.055730227 0.10758863 0.59406078 4292337115
0.057510432 0.10787982 0.59566861 4292731873
0.059295751 0.10816431 0.59723943 4292797666
0.061065495 0.10840589 0.59857333 4292995045
0.062545136 0.1081333 0.59706819 4293192424
0.064134851 0.10806003 0.59666365 4293192424
0.065746434 0.10802636 0.59647769 4293192424
0.067510962 0.10823951 0.59765464 4293126631
0.069091342 0.10815432 0.59718424 4293126631
0.070770167 0.10822361 0.59756684 4293126633
0.072328039 0.10810899 0.59693396 4293126633
0.074027836 0.10820688 0.59747446 4293126633
0.075519212 0.10800247 0.59634578 4293126633
0.077244401 0.10813401 0.59707212 4293192426
0.078701749 0.10789295 0.59574103 4292929254
0.08033365 0.10789607 0.59575832 4293060840
0.081656106 0.10749174 0.59352577 4293126633
0.083391003 0.10763552 0.59431964 4292995047
0.085044093 0.10767023 0.59451127 4293126633
0.043263346 0.11057553 0.60146886 4290428354
0.044671476 0.10999174 0.59829336 4290757832
0.0462717 0.10990547 0.5978241 4291021004
0.047830857 0.10973086 0.59687436 4291415762
0.049334988 0.10944573 0.59532338 4291678933
0.050732009 0.10894879 0.59262031 4292139484
0.052223504 0.10867921 0.59115398 4292337117
0.053710312 0.10841639 0.58972436 4292468703
0.055423822 0.10861315 0.59079462 4292139738
0.057174258 0.10886907 0.59218669 4292731875
0.059030157 0.10930618 0.59456432 4292995047
0.060681865 0.10935188 0.59481293 4293192424
0.062144239 0.10906292 0.59324116 4293192424
0.063639566 0.10884503 0.59205592 4293192424
0.065233223 0.10880195 0.59182161 4293126633
0.067008473 0.1090565 0.59320623 4293192424
0.068632491 0.10905871 0.59321821 4293060838
0.07026808 0.10907877 0.59332734 4292995045
0.071919769 0.10912236 0.59356445 4293060838
0.073452018 0.1089868 0.59282708 4293126633
0.075122118 0.10905722 0.5932101 4292995047
0.076728389 0.10903395 0.59308356 4292995047
0.078289136 0.10894831 0.59261769 4292995047
0.079592675 0.10851546 0.59026325 4293060840
0.081054129 0.10831084 0.58915025 4292995047
0.082706809 0.10836475 0.58944345 4292863461
0.08448457 0.10857734 0.59059983 4292863461
0.086549357 0.10914393 0.59368175 4292797668
0.044820659 0.11200106 0.60029137 4290823365
0.046403576 0.11185861 0.5995279 4291152589
0.04796939 0.11168606 0.59860307 4291349968
0.049376857 0.11116841 0.59582859 4291678933
0.05083606 0.11079659 0.59383577 4292205531
0.052284688 0.11042545 0.59184659 4292402910
0.053871296 0.11035928 0.59149194 4292600289
0.055520359 0.11042118 0.5918237 4292271322
0.057310518 0.11075222 0.59359801 4292797668
0.059229799 0.1113077 0.59657514 4293192426
0.06090479 0.1113866 0.5969981 4293192426
0.062447425 0.11122566 0.59613544 4293126633
0.063987739 0.11106886 0.59529507 4292995047
0.065513983 0.11089603 0.59436876 4292994534
0.067297667 0.11115679 0.59576637 4292929254
0.06880182 0.11095444 0.5946818 4292864231
0.070521429 0.11110087 0.59546661 4292798438
0.072151192 0.11110232 0.59547442 4292732645
0.073736839 0.11103729 0.59512585 4292732645
0.075387366 0.11107065 0.59530467 4292929252
0.076922134 0.11093566 0.59458113 4292929252
0.078489207 0.11085189 0.59413218 4292929252
0.079714037 0.11029796 0.59116328 4292797668
0.081238948 0.11017302 0.59049362 4292929254
0.082801163 0.11010254 0.5901159 4292929254
0.084613204 0.11036061 0.59149909 4292863461
0.04318713 0.11366539 0.60040927 4290625470
0.044614498 0.11312035 0.59753025 4290954949
0.046228454 0.11307021 0.59726536 4291020742
0.047769297 0.11285076 0.59610617 4291218634
0.049275868 0.11256751 0.59460998 4291744978
0.050623097 0.11194999 0.59134805 4292139736
0.052098852 0.11164612 0.58974296 4292271322
0.053613473 0.11144131 0.58866107 4292468701
0.05530449 0.1116044 0.5895226 4292139736
0.056951281 0.11167153 0.58987719 4292666080
0.05877151 0.11206568 0.59195918 4293126631
0.06044681 0.11216975 0.59250891 4293126633
0.062198237 0.11240596 0.59375662 4293126633
0.063661456 0.11212255 0.59225959 4293060840
0.065148637 0.11189435 0.5910542 4292929254
0.066799514 0.11195157 0.5913564 4292995047
0.068433814 0.11197893 0.59150094 4292929254
0.0699839 0.11187042 0.59092778 4292929254
0.071650036 0.11194815 0.59133834 4292863461
0.073193543 0.11183505 0.59074092 4292929252
0.075065456 0.1122178 0.59276271 4292929252
0.076511413 0.11196103 0.5914064 4292797666
0.078227028 0.11210135 0.59214759 4292929252
0.07936053 0.11141869 0.58854163 4292929252
0.080941916 0.1113795 0.58833462 4292863459
0.082325876 0.11107545 0.58672857 4292863459
0.084165692 0.11138633 0.58837068 4292929252
0.085958451 0.11162444 0.58962846 4292666080
0.043317113 0.11565478 0.60221636 4290691263
0.044800561 0.11523339 0.6000222 4291020742
0.04640156 0.11513346 0.59950185 4291218121
0.04805899 0.11517558 0.59972119 4291613392
0.049422558 0.11453392 0.59638005 4291744978
0.050819203 0.11400748 0.59363884 4292073943
0.052337617 0.11377835 0.59244573 4292205529
0.053991668 0.11384898 0.59281355 4292468701
0.055694181 0.11401472 0.59367657 4292271322
0.05731751 0.11401355 0.59367043 4292929250
0.059014801 0.11415551 0.59440964 4292863459
0.060634393 0.1141436 0.5943476 4292863459
0.062366195 0.11433802 0.59535998 4292666082
0.063937671 0.11423609 0.59482926 4292600289
0.065410212 0.11396685 0.5934273 4292337115
0.06711264 0.11410149 0.59412837 4292271324
0.068728507 0.11408607 0.59404808 4292337117
0.070420936 0.11419553 0.59461802 4292205531
0.071976654 0.11408336 0.59403396 4292139736
0.073564038 0.11402521 0.59373116 4292073943
0.075250685 0.11412012 0.59422535 4291876564
0.076844499 0.11407319 0.59398103 4291744978
0.078529187 0.11416034 0.5944348 4291679185
0.079982728 0.11391472 0.59315586 4291613392
0.081461601 0.11371426 0.592112 4291547599
0.082921542 0.11349567 0.59097385 4291350220
0.084615462 0.11359958 0.59151489 4291416013
0.043298334 0.1172512 0.60195529 4290362298
0.044724673 0.11667669 0.59900582 4290954949
0.046283428 0.11647602 0.59797561 4291349707
0.047804791 0.11619816 0.59654909 4291416013
0.049221396 0.11569241 0.59395266 4291679185
0.050626449 0.1151927 0.59138721 4291942357
0.052199844 0.11509511 0.59088618 4292271320
0.053702109 0.11485127 0.5896343 4292402906
0.055409897 0.11504837 0.59064621 4292073941
0.0569547 0.11490548 0.58991259 4292073941
0.058659114 0.11508361 0.59082711 4291942355
0.060240231 0.11501677 0.59048396 4291744978
0.061955202 0.11520232 0.59143656 4291744978
0.063525811 0.11511681 0.59099758 4291679185
0.065101117 0.11504386 0.59062308 4291679185
0.066861279 0.1152932 0.59190315 4291810771
0.068593562 0.11548381 0.59288174 4291876564
0.070179716 0.11542527 0.59258121 4291942357
0.071789488 0.11540736 0.59248924 4291942357
0.073314443 0.11525688 0.59171671 4291942357
0.075074315 0.11547425 0.59283262 4292008148
0.076518826 0.1152076 0.59146369 4291942355
0.078239992 0.11535992 0.5922457 4292139734
0.079695731 0.11512264 0.5910275 4291942357
0.081284568 0.11508323 0.5908252 4291942357
0.082832485 0.11498856 0.59033912 4292008150
0.08458709 0.11517894 0.59131652 4291942355
0.086376533 0.11540873 0.59249628 4292073941
0.045026675 0.11911411 0.60305059 4290889410
0.046458345 0.11855807 0.60023552 4291284168
0.048001286 0.11831425 0.59900111 4291416011
0.049321331 0.11755528 0.59515858 4291613390
0.050853942 0.11733525 0.59404463 4292008148
0.052412309 0.11718644 0.59329122 4292205527
0.054006692 0.11712468 0.59297854 4292205527
0.055623617 0.11711398 0.59292436 4292008148
0.057246894 0.11711688 0.59293902 4292271320
0.05901666 0.11741105 0.59442836 4292073941
0.060679451 0.11748233 0.59478927 4291810769
0.062284261 0.11744057 0.59457785 4291547597
0.063976869 0.11756226 0.59519392 4291679183
0.065534927 0.11743681 0.59455878 4291547599
0.067448162 0.11793848 0.59709865 4291744978
0.069125406 0.11801355 0.59747869 4291744978
0.070846699 0.1181586 0.59821308 4291810769
0.072348058 0.11793859 0.59709918 4291744976
0.07388486 0.11778478 0.59632051 4291810769
0.075541236 0.11782413 0.59651971 4291810769
0.077080399 0.11768285 0.59580445 4291810769
0.07871782 0.11769436 0.59586269 4291744976
0.080284588 0.11760188 0.59539449 4291679183
0.081921294 0.1176135 0.59545332 4291744976
0.083520435 0.11757177 0.59524208 4291744976
0.085124716 0.11753875 0.59507489 4291613390
0.086924948 0.11777246 0.5962581 4291481804
0.0448847 0.12038288 0.60114908 4290626497
0.046261314 0.11969016 0.59768993 4291218634
0.047717039 0.11924241 0.59545404 4291416013
0.049161974 0.11879816 0.59323561 4291547599
0.050679449 0.11855199 0.59200633 4292205529
0.052204553 0.11833835 0.59093946 4292271322
0.053637598 0.11793514 0.58892596 4292402908
0.05517935 0.11778749 0.58818865 4292073941
0.056788661 0.11778832 0.58819282 4292139734
0.058640711 0.11827873 0.59064174 4292402906
0.060425527 0.11861086 0.5923003 4292271320
0.062062863 0.11864371 0.59246433 4291613390
0.063734852 0.11873943 0.59294236 4291284425
0.065391779 0.11880307 0.59326011 4291350218
0.067273565 0.11926224 0.59555304 4291350218
0.068898343 0.11925483 0.59551609 4291416011
0.070374295 0.11899614 0.59422421 4291416011
0.071926259 0.11887474 0.59361804 4291416011
0.073524892 0.11883414 0.59341526 4291481804
0.075324677 0.11911337 0.59480965 4291547597
0.076772898 0.11883661 0.5934276 4291481804
0.078432389 0.11889157 0.59370208 4291481804
0.079797424 0.11850701 0.59178168 4291350218
0.081539236 0.11868615 0.59267628 4291481804
0.083066337 0.11855189 0.59200579 4291218632
0.084786355 0.11869282 0.59270954 4291218632
0.08641538 0.11870348 0.59276277 4291350218
0.046460912 0.12184852 0.60026866 4291021255
0.047893237 0.12131752 0.59765279 4291284427
0.049286462 0.12072581 0.59473783 4291679185
0.050890379 0.1206715 0.59447026 4291876564
0.05250106 0.1206361 0.59429586 4292205529
0.054086406 0.12054636 0.59385377 4292468701
0.055615742 0.12034066 0.59284043 4292008148
0.057217292 0.12029843 0.59263241 4292468701
0.059025649 0.12068137 0.5945189 4292468701
0.060841255 0.1210582 0.59637529 4292666080
0.062569857 0.12124676 0.59730417 4292337113
0.064353794 0.12153021 0.59870058 4291218632
0.065956466 0.12146577 0.59838313 4291087046
0.067749821 0.12174712 0.59976918 4290955460
0.069340073 0.12165881 0.59933412 4291021253
0.070909269 0.1215385 0.59874141 4291152839
0.07246121 0.12139471 0.59803307 4291020996
0.074030347 0.12128543 0.59749472 4291020996
0.075744838 0.12141388 0.59812748 4290955460
0.077315807 0.1213117 0.59762412 4290889921
0.079018474 0.12141611 0.59813851 4291021507
0.080567993 0.12128574 0.59749621 4290889921
0.082324401 0.12146582 0.59838337 4290758335
0.083812289 0.12125039 0.59732211 4290758335
0.085420378 0.12121378 0.59714174 4290692542
0.087090589 0.12126505 0.59739429 4290758335
0.044867691 0.12362473 0.60092127 4290757570
0.046197467 0.12279025 0.596865 4291152841
0.04754205 0.12205074 0.59327036 4291218634
0.048995864 0.12163123 0.59123117 4291679185
0.050528582 0.12142814 0.590244 4291876564
0.052167412 0.12148473 0.59051907 4292139736
0.053757861 0.12142864 0.59024644 4292337115
0.05535464 0.12138971 0.59005719 4292073943
0.056862779 0.1211641 0.58896053 4292271322
0.058671217 0.12157317 0.590949 4292863459
0.060530599 0.12206305 0.5933302 4292797666
0.062407441 0.12256163 0.59575373 4292731871
0.064161651 0.12280012 0.59691298 4292600285
0.065789737 0.12279139 0.59687054 4291350218
0.067451984 0.12284528 0.5971325 4290758081
0.069062516 0.12280466 0.59693509 4290626749
0.070597582 0.12263484 0.59610957 4290626749
0.072276093 0.12271625 0.59650528 4290823617
0.073825575 0.12257979 0.595842 4290560445
0.075451978 0.12257421 0.59581488 4290560956
0.076963983 0.12238695 0.5949046 4290363577
0.07867264 0.12251369 0.59552068 4290297784
0.080312178 0.12252982 0.59559911 4290297784
0.082082294 0.12274058 0.5966236 4290297784
0.083576947 0.12253923 0.59564483 4290166198
0.085224986 0.12256618 0.59577584 4290429370
0.086889885 0.12261592 0.5960176 4290494909
0.046403989 0.12497911 0.59953326 4291087048
0.047731623 0.12416668 0.59563601 4291350220
0.049106952 0.12352789 0.59257168 4291679185
0.050667819 0.12338172 0.59187049 4292008150
0.052267674 0.12333659 0.591654 4292402908
0.053977646 0.12354622 0.59265959 4292337115
0.055606142 0.12356258 0.59273809 4291942357
0.057236161 0.1235813 0.59282786 4292337115
0.059103154 0.12409654 0.59529954 4292797666
0.060981378 0.12460712 0.59774882 4292929252
0.062776178 0.12492502 0.5992738 4292929252
0.064511269 0.12511092 0.60016561 4292797664
0.066080615 0.12497415 0.59950948 4292468953
0.067781508 0.12508675 0.60004967 4291087300
0.069485568 0.12519975 0.60059172 4290495163
0.071337283 0.12556744 0.60235548 4290363064
0.073018871 0.1256258 0.6026355 4290297273
0.074581973 0.12548226 0.60194689 4290099122
0.076159239 0.12536822 0.60139984 4289836720
0.077896982 0.12551759 0.60211641 4289903026
0.079461582 0.12538756 0.60149264 4289837233
0.081066802 0.12532561 0.60119545 4289508268
0.08269079 0.12529457 0.6010465 4289639854
0.046040799 0.12562804 0.59484088 4290758083
0.047421858 0.12497959 0.59177053 4291284427
0.048894282 0.1246068 0.5900054 4291679185
0.050406393 0.12435574 0.58881664 4291876564
0.051959164 0.12421744 0.58816177 4292337115
0.053590406 0.1242694 0.58840781 4292337115
0.055250093 0.12438238 0.58894277 4292205529
0.056911666 0.12449306 0.58946687 4292073943
0.058839913 0.12516494 0.59264815 4292797666
0.060730372 0.12572254 0.5952884 4292995045
0.062525697 0.12605925 0.59688264 4292798436
0.064112857 0.1259698 0.59645909 4292732643
0.06568642 0.12585872 0.5959332 4292797664
0.067391969 0.12599982 0.59660125 4292600285
0.069175407 0.12627639 0.59791082 4291482058
0.071091205 0.12677626 0.60027766 4290034611
0.072802953 0.12689787 0.6008535 4289574060
0.074564651 0.12709926 0.60180706 4289442474
0.076194219 0.1270716 0.60167611 4289245095
0.07798101 0.12730175 0.60276586 4289179303
0.079443656 0.12700421 0.60135698 4289376682
0.080961578 0.12680528 0.60041505 4289113510
0.082669407 0.12690581 0.60089105 4288916131
0.046270456 0.1278899 0.597808 4291087048
0.047689728 0.12731341 0.59511322 4291481804
0.049197517 0.12700348 0.59366453 4291744978
0.050846972 0.12706737 0.59396321 4292008150
0.052376162 0.12683608 0.59288204 4292139736
0.053983245 0.12680165 0.5927211 4292402908
0.055613752 0.12682264 0.59281921 4291876564
0.057399318 0.12718602 0.59451777 4292205529
0.059323344 0.12782772 0.59751737 4292731873
0.061111458 0.12815002 0.59902388 4292797666
0.062780879 0.12821306 0.59931862 4292732641
0.06446033 0.12829287 0.59969169 4292601055
0.066075407 0.12824379 0.59946221 4292731871
0.06796287 0.12871295 0.60165524 4292600285
0.04471077 0.12974429 0.59881961 4290625984
0.046073653 0.1289742 0.59526533 4290955462
0.047554813 0.12857646 0.59342963 4291284425
0.049080741 0.12832204 0.59225535 4291744976
0.050673179 0.12825221 0.59193307 4292073943
0.052243948 0.12813355 0.59138542 4292139736
0.053833134 0.12806584 0.59107292 4292271322
0.055473257 0.12811972 0.59132159 4292008150
0.057039466 0.12800467 0.59079057 4292008150
0.058815733 0.12835437 0.5924046 4292797666
0.060596496 0.12869488 0.59397614 4292601057
0.062438611 0.12914449 0.59605128 4292863459
0.064198337 0.12940516 0.59725434 4292797664
0.065857746 0.12945567 0.59748751 4292666078
0.067690119 0.12983552 0.59924066 4292402906
0.069618039 0.13037632 0.60173666 4292205527
0.046396859 0.13151865 0.59944111 4291152839
0.047889322 0.13111556 0.59760392 4291350220
0.049389131 0.13075854 0.59597671 4291613392
0.050927278 0.13052261 0.59490132 4292008150
0.052422274 0.13019408 0.593404 4292205529
0.054000765 0.13008645 0.59291345 4292402908
0.055646006 0.13014121 0.59316301 4291942357
0.057251774 0.13010316 0.59298956 4292205529
0.059022363 0.13043144 0.59448582 4292666080
0.060876705 0.13092223 0.59672278 4292797666
0.062699981 0.13132234 0.59854639 4292731873
0.06451048 0.13167599 0.60015827 4292797664
0.066068411 0.13150935 0.59939873 4292534492
0.068009011 0.13209404 0.60206372 4292468699
0.044744354 0.13312018 0.59926939 4290560704
0.046235885 0.13269635 0.59736139 4291152841
0.047716185 0.13227028 0.59544337 4291284429
0.049151581 0.131752 0.5931102 4291744978
0.05048715 0.13100779 0.58976001 4291744978
0.051977333 0.13069844 0.5883674 4292205529
0.053589053 0.13070412 0.58839297 4292271322
0.05530142 0.13094778 0.58948988 4292139736
0.056807932 0.130704 0.58839244 4291942357
0.058495916 0.13087969 0.58918333 4292600287
0.060355011 0.13141854 0.59160906 4292666080
0.062291961 0.13209434 0.59465134 4292600287
0.064060286 0.13238727 0.59596997 4292600287
0.065722629 0.13245206 0.59626168 4292600287
0.067522913 0.13278499 0.59776044 4292402906
0.069592685 0.13361959 0.60151756 4292139734
0.04645836 0.13497669 0.6002357 4290823876
0.047891431 0.1343908 0.59763026 4291350220
0.049267668 0.13368937 0.59451103 4291679187
0.050662339 0.13308118 0.59180647 4291942359
0.052200995 0.13287717 0.59089923 4292139738
0.053903844 0.13309081 0.59184927 4292271324
0.055618141 0.13331945 0.592866 4291876564
0.057155319 0.13312258 0.59199053 4292139736
0.058772359 0.13311744 0.5919677 4292731873
0.060530476 0.13342357 0.59332901 4292600287
0.062457711 0.13407673 0.59623361 4292468701
0.064265139 0.13444601 0.59787577 4292534494
0.065966718 0.13458101 0.59847617 4292271322
0.067898467 0.13516769 0.60108507 4292271320
0.04490748 0.1368959 0.6014542 4290363325
0.046283077 0.13610311 0.59797108 4290955462
0.047709148 0.13550779 0.59535557 4291152841
0.049045969 0.13470666 0.5918358 4291679187
0.050432894 0.13408995 0.58912623 4291810773
0.052048687 0.13410106 0.58917511 4292139738
0.053818349 0.13449608 0.59091055 4292205529
0.055533681 0.13473623 0.59196568 4291942357
0.056992814 0.13435878 0.59030735 4291810771
0.058516432 0.13414998 0.58938998 4292534494
0.060183752 0.13427298 0.58993036 4292534494
0.062038649 0.13479711 0.59223318 4292600287
0.063771144 0.13503538 0.59328002 4292468701
0.065607972 0.13547727 0.59522146 4292534494
0.067520633 0.13605057 0.59774023 4292205527
0.046353381 0.13794799 0.5988794 4290758083
0.047950726 0.1378307 0.59837019 4291284427
0.049355291 0.13718532 0.59556836 4291547599
0.050910488 0.13698649 0.59470516 4291810771
0.052390743 0.13660456 0.59304708 4292139736
0.054160547 0.13697788 0.59466779 4292337115
0.055776894 0.13695265 0.59455824 4291810771
0.057379562 0.13689619 0.59431314 4291876562
0.058917839 0.13669346 0.59343302 4292731873
0.060511585 0.13662684 0.59314382 4292534494
0.062236566 0.13685228 0.59412253 4292600287
0.063919798 0.13697676 0.59466296 4292534494
0.065823339 0.13755548 0.59717536 4292337115
0.06787701 0.1384123 0.60089511 4292205527
0.044775598 0.13977458 0.59968787 4290429118
0.04613309 0.13892277 0.59603328 4290823876
0.047680523 0.13868155 0.59499836 4291152841
0.049201209 0.13838105 0.59370905 4291416013
0.050676782 0.1379769 0.59197515 4291810771
0.052109741 0.13748536 0.58986622 4292073943
0.053692263 0.1374061 0.58952618 4292337115
0.055364504 0.13755438 0.59016234 4291942357
0.057040185 0.13770254 0.59079802 4292139734
0.058679692 0.13775763 0.59103435 4292666080
0.060188737 0.1375117 0.58997923 4292600287
0.061862241 0.13764454 0.59054917 4292666080
0.063551813 0.13780545 0.59123951 4292402906
0.065542996 0.13859616 0.59463197 4292337113
0.067524813 0.13932925 0.59777725 4292337113
0.046402782 0.1413748 0.59951764 4290889667
0.047891963 0.14093129 0.59763688 4291284427
0.049363099 0.14046572 0.59566259 4291679185
0.050868288 0.14012371 0.59421223 4291744978
0.052209076 0.13936402 0.59099066 4292008150
0.053796045 0.13928738 0.5906657 4292205529
0.055432152 0.13933873 0.59088343 4291810769
0.057252869 0.13983805 0.59300089 4292073941
0.058970466 0.14006495 0.59396309 4292534494
0.060462423 0.13975812 0.59266192 4292534494
0.062166017 0.13994373 0.59344906 4292600287
0.063834369 0.14004257 0.5938682 4292534494
0.065783255 0.1407367 0.59681171 4292534492
0.067754291 0.14144345 0.59980875 4292271320
0.046269067 0.14260258 0.59779006 4290823876
0.047588143 0.14166161 0.59384555 4291087048
0.049041823 0.14117025 0.59178573 4291547599
0.050501756 0.14072773 0.58993065 4291744978
0.051954158 0.14029224 0.58810508 4292073943
0.053459831 0.14002246 0.58697414 4292073943
0.055151887 0.14024234 0.58789593 4292337115
0.05685737 0.14048293 0.5889045 4291679183
0.058636993 0.14088842 0.59060431 4292797664
0.060136613 0.14061743 0.5894683 4292666080
0.061942443 0.14105791 0.59131479 4292600287
0.063522354 0.14097458 0.59096545 4292600287
0.065415472 0.14157324 0.59347504 4292402908
0.067210093 0.1419349 0.59499115 4292337113
0.04791715 0.14427662 0.59795117 4291152843
0.049263857 0.14343546 0.59446502 4291416015
0.05078138 0.14312953 0.59319705 4291744980
0.052245509 0.14269666 0.59140307 4291810773
0.05385017 0.14266212 0.59125996 4292073945
0.055503875 0.14275576 0.59164798 4291942359
0.057214703 0.1429868 0.59260559 4291744980
0.059075456 0.14356951 0.59502059 4292534496
0.060633432 0.14340486 0.59433818 4292600289
0.062367082 0.14365345 0.59536844 4292534494
0.063882954 0.14340053 0.59432024 4292402908
0.065762326 0.14395587 0.59662181 4292337115
0.049390636 0.14543486 0.59599489 4291021257
0.050920025 0.14514732 0.59481657 4291416015
0.052456573 0.14489737 0.59379226 4291547601
0.053937126 0.14451241 0.5922147 4292008150
0.055570714 0.14454798 0.59236044 4291876564
0.057161316 0.14447287 0.59205264 4291152841
0.059113696 0.1452911 0.59540576 4292008150
0.060681392 0.1451453 0.59480828 4292337115
0.062433653 0.14543708 0.59600395 4292073945
0.06392704 0.14512628 0.59473032 4291744980
