# .PCD v0.7 - Point Cloud Data file format
VERSION 0.7
FIELDS x y z rgba
SIZE 4 4 4 4
TYPE F F F U
COUNT 1 1 1 1
WIDTH 564
HEIGHT 1
VIEWPOINT 0 0 0 1 0 0 0
POINTS 564
DATA ascii
0.13839407 -0.082105175 0.57957315 4287431981
0.14000089 -0.082117774 0.57966208 4287169836
0.14150302 -0.082069367 0.57932037 4287038250
0.1434052 -0.082251489 0.58060598 4286645032
0.14500752 -0.082259521 0.58066267 4286253354
0.14681612 -0.082383133 0.58153522 4285732144
0.1374066 -0.080871724 0.58210593 4288087337
0.13828088 -0.080453984 0.57909912 4288022825
0.13981043 -0.080422632 0.57887346 4288022055
0.14136204 -0.080404542 0.57874322 4287628069
0.14313246 -0.080509931 0.57950181 4288086823
0.14457013 -0.080427878 0.57891119 4287627299
0.14592341 -0.08030118 0.57799923 4288086823
0.14777894 -0.080450609 0.5790748 4287824679
0.14980152 -0.080686852 0.58077526 4287692838
0.15157187 -0.08078371 0.58147246 4287430691
0.15340814 -0.08091332 0.58240533 4287365156
0.15472548 -0.080769368 0.58136922 4287430952
0.15630347 -0.080763035 0.58132362 4287037479
0.13706125 -0.079080194 0.58064288 4288218409
0.13808799 -0.078759924 0.5782913 4288284200
0.13985698 -0.078865461 0.57906622 4287956005
0.14137994 -0.078831449 0.57881647 4287692833
0.14338815 -0.07906577 0.58053696 4287955235
0.14452426 -0.078819335 0.57872754 4288086821
0.14564988 -0.078572586 0.5769158 4287955235
0.14760734 -0.078775048 0.5784024 4287824165
0.14949584 -0.078936815 0.57959014 4288086823
0.15125385 -0.079027012 0.58025241 4288086823
0.15281582 -0.079013966 0.58015662 4288021030
0.1538191 -0.078715287 0.57796359 4287889958
0.15513562 -0.078581356 0.57698017 4287824166
0.15653794 -0.078493126 0.57633239 4288021545
0.15835786 -0.078613997 0.57721984 4287758373
0.15987469 -0.078583486 0.57699585 4287824425
0.16145948 -0.078586638 0.57701898 4287562023
0.16320781 -0.078668579 0.57762063 4287430950
0.16555423 -0.079034463 0.58030713 4287103014
0.16733888 -0.079127751 0.5809921 4287037480
0.16875266 -0.079045579 0.58038872 4286513446
0.17015184 -0.078958169 0.5797469 4286251302
0.17159612 -0.078893088 0.57926905 4285533998
0.13693291 -0.07741937 0.58009917 4288284202
0.13833012 -0.077313423 0.57930529 4288218407
0.1400331 -0.077378832 0.57979542 4288219434
0.1416835 -0.077414051 0.58005929 4288152101
0.14353073 -0.077554837 0.58111423 4287758368
0.14484565 -0.077408075 0.58001453 4287955235
0.14649275 -0.077440083 0.58025438 4288152616
0.14792535 -0.077359222 0.57964849 4288021030
0.14954291 -0.077375792 0.57977265 4287758370
0.15110466 -0.077363439 0.57968009 4287955237
0.1528497 -0.077444203 0.58028525 4287955237
0.1540781 -0.077264234 0.57893676 4288021030
0.15579562 -0.077330716 0.57943487 4288152616
0.15714112 -0.077213049 0.5785532 4288152614
0.15898277 -0.07733909 0.57949764 4288086821
0.1601222 -0.077124417 0.57788908 4288152355
0.16172296 -0.077133961 0.57796061 4288086562
0.16307987 -0.077028155 0.57716781 4288086562
0.16532327 -0.077339083 0.57949758 4288218148
0.16666353 -0.077225603 0.57864732 4288086821
0.1678161 -0.077028133 0.57716763 4287955237
0.16905266 -0.076872528 0.5760017 4288020522
0.17075934 -0.076931588 0.57644427 4287497004
0.17312077 -0.077281862 0.57906884 4284092459
0.13582024 -0.076098233 0.58213127 4287823912
0.13646227 -0.075571954 0.57810539 4287955752
0.13828009 -0.07570143 0.57909584 4288152614
0.14033604 -0.075956851 0.58104974 4287956005
0.14206842 -0.076033384 0.58163518 4287824419
0.14359835 -0.07600107 0.581388 4288021028
0.14482169 -0.07580898 0.57991856 4287889442
0.14627977 -0.075742595 0.57941073 4288021030
0.14781353 -0.075716399 0.57921034 4287954982
0.14930706 -0.075670369 0.57885826 4287955237
0.15073363 -0.075591736 0.57825673 4288021030
0.15220489 -0.075536899 0.57783723 4287889444
0.15371117 -0.075500406 0.57755804 4288021030
0.15536179 -0.075534828 0.57782137 4288021030
0.15680902 -0.075470656 0.57733047 4288086821
0.15854695 -0.075546287 0.57790905 4287955235
0.15983182 -0.075406685 0.57684112 4288086821
0.16153543 -0.075465418 0.57729042 4288086821
0.16293 -0.07538005 0.57663739 4287889442
0.16482475 -0.075525515 0.57775015 4288086821
0.16622318 -0.07544294 0.57711846 4288152614
0.16722406 -0.075183198 0.57513148 4288021028
0.16869895 -0.075139411 0.57479656 4287889961
0.17019805 -0.075107113 0.5745495 4287431979
0.17254445 -0.075445898 0.57714111 4284752697
0.13598691 -0.074597314 0.58284557 4288151593
0.13679999 -0.074173741 0.57953608 4288152104
0.13849841 -0.074234411 0.58001012 4287956005
0.14051951 -0.074464694 0.5818094 4288218407
0.14238219 -0.074606813 0.58291978 4287889442
0.14367785 -0.074451961 0.58170986 4287889442
0.14507344 -0.074351713 0.58092666 4288218407
0.14628693 -0.074161336 0.57943916 4287955235
0.14802529 -0.074238256 0.58004016 4287889442
0.14952418 -0.074194729 0.57970005 4287758370
0.15062945 -0.073958836 0.57785702 4287955237
0.15235691 -0.074030176 0.57841438 4287889444
0.15403509 -0.074076355 0.57877517 4288021030
0.15588155 -0.074201688 0.57975447 4287955237
0.1572402 -0.074094631 0.57891798 4287823905
0.1591671 -0.074254811 0.5801695 4288021028
0.16081627 -0.074283548 0.58039403 4288021028
0.16272515 -0.074430503 0.58154225 4288086821
0.16381615 -0.074204147 0.57977366 4288021028
0.16539276 -0.074199982 0.57974112 4288086821
0.16682215 -0.074130476 0.57919806 4287955235
0.16820095 -0.074040018 0.57849127 4288086821
0.16953167 -0.073930271 0.5776338 4288087340
0.17115462 -0.073948808 0.57777864 4287499314
0.1731077 -0.074108347 0.57902515 4285808978
0.13570027 -0.072849154 0.58161706 4287954983
0.13672368 -0.072548024 0.57921284 4288086310
0.13821393 -0.072498657 0.57881874 4287824419
0.14027664 -0.072747298 0.58080381 4287955235
0.14211027 -0.072872892 0.58180654 4287824419
0.14369997 -0.072871998 0.58179945 4287955235
0.14492242 -0.072686933 0.58032191 4287955235
0.14602721 -0.072447509 0.57841039 4287955237
0.14763622 -0.072460681 0.57851553 4287889442
0.14929707 -0.072498761 0.57881957 4287823904
0.15063934 -0.072382957 0.57789499 4288086308
0.15213007 -0.072340146 0.57755321 4288086821
0.15417743 -0.072560191 0.57931 4287955235
0.15607384 -0.072705433 0.58046961 4288021028
0.15755171 -0.072654732 0.58006483 4287955235
0.15894492 -0.072566412 0.57935965 4287823905
0.16065024 -0.072620913 0.57979482 4287889440
0.16231279 -0.072655201 0.58006853 4287955235
0.16346507 -0.072462626 0.57853109 4288021028
0.16482501 -0.072364926 0.57775104 4288218407
0.16654435 -0.072425358 0.57823354 4287889442
0.16779999 -0.072284915 0.57711226 4287758626
0.16889679 -0.072079301 0.57547063 4287890218
0.17005469 -0.071903303 0.57406551 4287695153
0.17188464 -0.072012097 0.57493412 4288311933
0.13585316 -0.071338505 0.58227235 4288020517
0.13713692 -0.071178138 0.58096343 4288021030
0.13839036 -0.071005903 0.5795576 4288021030
0.14034586 -0.071193695 0.58109039 4288349995
0.1420203 -0.071236305 0.58143818 4287955237
0.14378592 -0.071323209 0.58214748 4288086821
0.14506917 -0.071171537 0.58090955 4288021028
0.14633971 -0.071017005 0.5796482 4287823905
0.14783244 -0.070972435 0.57928443 4287823905
0.14960982 -0.071064033 0.58003205 4287823903
0.15107083 -0.071005009 0.57955033 4287889440
0.1527369 -0.071042582 0.57985699 4287889442
0.1545994 -0.071169816 0.58089548 4287823903
0.15662609 -0.071369283 0.58252352 4287561755
0.15799239 -0.07126683 0.58168733 4287758366
0.15933274 -0.071154848 0.58077329 4288021026
0.160997 -0.071188293 0.58104628 4287955233
0.16263959 -0.071211591 0.58123642 4288021026
0.16401234 -0.071117446 0.580468 4288021026
0.16555026 -0.071096033 0.58029324 4287955233
0.16700941 -0.07104151 0.57984823 4287890210
0.16818491 -0.0708685 0.57843608 4287890212
0.16926704 -0.070659734 0.57673216 4287628329
0.17094916 -0.070702977 0.57708508 4285794084
0.17306906 -0.070924826 0.57889587 4290355112
0.13543819 -0.069532745 0.58049375 4288086311
0.13685134 -0.06944409 0.57975364 4288086823
0.13828501 -0.069367759 0.5791164 4287889444
0.14009096 -0.069477789 0.58003497 4288218409
0.14163801 -0.069458388 0.57987303 4288086823
0.14353462 -0.069608949 0.58112997 4287955235
0.14497511 -0.069537431 0.58053291 4287889442
0.14642428 -0.069471583 0.57998317 4287889442
0.14771056 -0.069330685 0.57880688 4287955235
0.14980058 -0.069566026 0.58077163 4288021028
0.15141582 -0.06957826 0.58087379 4287955235
0.1526812 -0.069431141 0.57964551 4288152614
0.15432668 -0.06945812 0.57987076 4287955233
0.15586016 -0.069434658 0.5796749 4287889440
0.1573527 -0.069393605 0.57933217 4288021026
0.15840359 -0.069160551 0.5773865 4288021026
0.16025904 -0.069279909 0.57838297 4287889440
0.16195342 -0.069327973 0.57878423 4287823903
0.16391805 -0.06948968 0.58013427 4287955233
0.16544299 -0.069463678 0.57991719 4288086819
0.16670235 -0.069327712 0.57878208 4287889442
0.16760096 -0.0690457 0.5764277 4287692833
0.1687153 -0.068856992 0.57485223 4287826221
0.17045088 -0.068922959 0.57540298 4285729574
0.17280295 -0.069234729 0.57800579 4289960354
0.13564695 -0.06804961 0.58138853 4288086311
0.13730104 -0.068081237 0.58165872 4288021030
0.13903749 -0.068152517 0.5822677 4287889444
0.14062968 -0.068152256 0.5822655 4288021030
0.141912 -0.068003528 0.58099478 4288021030
0.1435295 -0.068016931 0.58110929 4287758370
0.14498504 -0.067954116 0.58057266 4287889444
0.14653178 -0.067934953 0.58040893 4287955235
0.1478491 -0.067810975 0.5793497 4287955235
0.1498872 -0.068016715 0.5811075 4287889442
0.15171906 -0.068125524 0.58203709 4287823905
0.15331963 -0.068129294 0.58206928 4287955235
0.15469858 -0.068035528 0.58126819 4287889442
0.156055 -0.067933857 0.58039957 4287889440
0.15736721 -0.067815177 0.57938564 4287955233
0.15867653 -0.067697637 0.57838142 4287889440
0.16040786 -0.067760684 0.57892007 4287889442
0.16248214 -0.067965947 0.58067375 4288021028
0.1646159 -0.068191893 0.58260411 4287955235
0.16610405 -0.06814862 0.58223438 4287890212
0.16686167 -0.067809284 0.57933527 4287890212
0.16785356 -0.067570657 0.5772965 4287758372
0.16949135 -0.067594051 0.57749641 4287365416
0.17184186 -0.067898631 0.58009863 4284558396
0.1353315 -0.066304751 0.58003646 4288020517
0.13666865 -0.066183947 0.57897967 4287954980
0.13830641 -0.06620983 0.57920605 4287758370
0.13978676 -0.066160612 0.57877553 4287955237
0.14145088 -0.066198498 0.57910693 4287889444
0.14285257 -0.066114098 0.5783686 4288086821
0.14459264 -0.066186428 0.57900137 4287889442
0.14614446 -0.066171966 0.57887483 4288021028
0.14783674 -0.066220716 0.5793013 4288021028
0.14938679 -0.066205412 0.57916743 4287955235
0.15135188 -0.066372432 0.58062851 4287889442
0.15286358 -0.066339217 0.58033794 4287823905
0.15438832 -0.066312291 0.58010238 4288086821
0.15573277 -0.066209264 0.5792011 4288086821
0.1574461 -0.066263549 0.57967603 4287955235
0.15865146 -0.066105112 0.57828999 4288086821
0.16033442 -0.066146836 0.578655 4287823903
0.16189794 -0.066138946 0.57858598 4287889442
0.16395231 -0.066329792 0.58025551 4287955235
0.16520542 -0.066195928 0.57908446 4288086821
0.16658674 -0.066115484 0.5783807 4288021030
0.16771547 -0.065937251 0.57682157 4288086568
0.16944149 -0.065994978 0.57732654 4287628590
0.17130136 -0.066103287 0.57827401 4284420391
0.13584398 -0.064963222 0.58223295 4288151590
0.13694693 -0.064731777 0.58015859 4287954979
0.13844314 -0.064689383 0.57977867 4287889443
0.13997126 -0.06466268 0.57953936 4287823906
0.14172855 -0.064741269 0.58024371 4287889443
0.14322679 -0.064701103 0.57988369 4287889443
0.14498265 -0.064776912 0.58056313 4288021030
0.14661761 -0.06479764 0.58074892 4287955235
0.14810614 -0.064753905 0.58035696 4288021028
0.14940017 -0.064626969 0.57921928 4287823905
0.15110181 -0.064677164 0.57966918 4287823905
0.15273526 -0.06469743 0.57985079 4287955237
0.1544297 -0.064742856 0.58025789 4287889444
0.15637909 -0.064893149 0.5816049 4287955237
0.15816021 -0.064971283 0.58230519 4287955235
0.15953039 -0.064880744 0.58149374 4287889441
0.16066669 -0.06469781 0.57985419 4287955233
0.16210184 -0.064637609 0.57931465 4288021028
0.1637706 -0.064670838 0.57961243 4287889442
0.16510926 -0.064574316 0.57874739 4287955235
0.16663434 -0.064551845 0.57854599 4288086823
0.16798365 -0.064462349 0.57774389 4287692836
0.16972181 -0.064522348 0.57828164 4287366445
0.17155176 -0.064615816 0.57911932 4284619053
0.13547277 -0.063197441 0.58064198 4287954980
0.13656928 -0.062970698 0.57855868 4288020517
0.13779566 -0.06280835 0.57706708 4287954980
0.13931444 -0.062781446 0.5768199 4287954980
0.14115326 -0.062897749 0.57788849 4287823906
0.14298959 -0.063010387 0.57892334 4287954980
0.14489953 -0.063152626 0.58023024 4287954978
0.14661078 -0.063206144 0.58072191 4288021026
0.14814514 -0.063183054 0.58050978 4288021026
0.14949811 -0.063083917 0.57959896 4287889442
0.15097867 -0.063040145 0.57919675 4288021028
0.15219021 -0.062886104 0.5777815 4287955237
0.15397023 -0.062967733 0.57853144 4287692833
0.15580373 -0.063069344 0.57946503 4287692833
0.15789725 -0.063273095 0.58133703 4287823907
0.1592586 -0.063182324 0.58050305 4287823905
0.16038832 -0.063002355 0.57884955 4287692829
0.16166605 -0.062883466 0.57775724 4287758366
0.16337392 -0.062932581 0.57820851 4288086819
0.16491592 -0.062917471 0.57806969 4288086821
0.16681604 -0.063037977 0.57917684 4287824166
0.16827239 -0.062990099 0.57873696 4287825195
0.16988511 -0.063001104 0.57883805 4287302192
0.1714745 -0.063003324 0.57885849 4285016121
0.13499475 -0.062120073 0.58545691 4287823908
0.13599551 -0.061846908 0.58288246 4288151591
0.13717046 -0.061658368 0.58110553 4287954980
0.13857268 -0.061575137 0.58032113 4288086310
0.13997643 -0.061494458 0.57956076 4287823906
0.14181416 -0.061604109 0.58059418 4287823906
0.14368996 -0.061727695 0.58175892 4287954980
0.1454974 -0.061819516 0.58262432 4287955235
0.14702363 -0.06179117 0.58235717 4287758368
0.1481857 -0.061612014 0.58066869 4288021028
0.14951152 -0.061504025 0.57965094 4288021030
0.15096033 -0.061448365 0.57912636 4287758370
0.15290529 -0.061593719 0.58049625 4287823906
0.15448746 -0.061591454 0.58047491 4287758370
0.1561192 -0.061608791 0.58063829 4287823907
0.15762635 -0.061577104 0.58033967 4287758368
0.15898249 -0.061487652 0.57949662 4288021028
0.1601122 -0.06131326 0.57785302 4287823905
0.16201709 -0.06143621 0.5790118 4287823903
0.16362529 -0.061445367 0.57909811 4288086821
0.1652528 -0.061461546 0.57925057 4288021028
0.16681227 -0.061452333 0.57916373 4287824165
0.1683812 -0.061446752 0.57911116 4287825449
0.17004175 -0.061474409 0.57937181 4285468458
0.17196661 -0.061596211 0.58051974 4286802031
0.13417262 -0.060150079 0.58189148 4288348199
0.13529512 -0.059942208 0.57988054 4288151589
0.13690777 -0.059953805 0.57999271 4287823906
0.1381882 -0.059821311 0.57871097 4287889443
0.13961355 -0.059753846 0.5780583 4287889443
0.14135014 -0.059819605 0.57869446 4288086310
0.14320828 -0.059934784 0.57980871 4287889443
0.14489479 -0.059976399 0.58021128 4287889443
0.14646935 -0.059971273 0.58016169 4287823907
0.14771475 -0.059832919 0.57882327 4287889444
0.14924014 -0.059809718 0.5785988 4287889444
0.15077141 -0.059789333 0.57840163 4288021030
0.15279268 -0.059961665 0.58006877 4287758370
0.15455504 -0.060029898 0.58072883 4287692833
0.1559245 -0.059945691 0.57991421 4287823905
0.15749557 -0.059939899 0.57985818 4287955235
0.15863672 -0.059772242 0.57823628 4287889442
0.1599952 -0.059688974 0.57743073 4287758368
0.16179225 -0.059769347 0.57820827 4287758368
0.16359636 -0.059850752 0.57899576 4287823907
0.16532913 -0.059904743 0.57951808 4287955235
0.16695738 -0.059920195 0.57966757 4287824165
0.16829905 -0.059833474 0.57882863 4287693863
0.16993617 -0.059852432 0.57901204 4286581290
0.17184991 -0.059967559 0.58012575 4286342507
0.13439324 -0.058654692 0.58284831 4287889442
0.13549682 -0.058443036 0.5807451 4287889443
0.13713825 -0.058465578 0.5809691 4287889443
0.13852638 -0.058380857 0.58012724 4287889443
0.1399072 -0.058295004 0.57927412 4288020517
0.14175741 -0.058404472 0.5803619 4287889443
0.14347394 -0.058457047 0.58088434 4287758369
0.14537646 -0.058583416 0.58214003 4287954980
0.14684297 -0.058533255 0.58164161 4288020517
0.14816917 -0.058428831 0.58060396 4287889444
0.14937779 -0.058280751 0.5791325 4287955237
0.15113653 -0.05834816 0.57980233 4287889444
0.15316908 -0.058518779 0.58149773 4287955237
0.15460581 -0.058460593 0.58091956 4287758368
0.15605108 -0.058406796 0.58038497 4288021028
0.15735947 -0.058303352 0.57935709 4287955235
0.15873522 -0.05822669 0.57859528 4288021030
0.16035539 -0.058240317 0.5787307 4287955235
0.16215424 -0.05831793 0.57950193 4287823907
0.16385068 -0.058357574 0.57989585 4287823908
0.16536132 -0.058330912 0.57963091 4287758372
0.16710308 -0.058385506 0.58017343 4287627299
0.16855463 -0.058338635 0.57970768 4287499053
0.17045349 -0.058446012 0.58077466 4284882222
0.17263499 -0.058647417 0.58277601 4286015595
0.13361146 -0.05672846 0.57945776 4288020516
0.13476995 -0.056549486 0.57762963 4287823904
0.13665412 -0.056675632 0.57891816 4288086308
0.13810891 -0.05662284 0.57837892 4287955235
0.13961449 -0.056591839 0.57806224 4288086823
0.14133258 -0.056646701 0.57862264 4287889444
0.14323634 -0.056773938 0.57992232 4287758371
0.14491163 -0.056808829 0.58027869 4287692834
0.14667383 -0.056876663 0.5809716 4287889444
0.14814851 -0.056832742 0.58052295 4287955237
0.14967521 -0.0568095 0.58028555 4287889442
0.15091754 -0.056679949 0.57896227 4287823905
0.15250151 -0.056680057 0.57896334 4287823905
0.15418339 -0.056716181 0.57933235 4287955235
0.15547355 -0.056608949 0.578237 4288021028
0.15704206 -0.056604199 0.57818848 4287823905
0.15872131 -0.056639064 0.57854462 4287823905
0.16069162 -0.056776073 0.57994413 4287955235
0.16228366 -0.056778066 0.57996446 4287889440
0.16370596 -0.056721207 0.57938367 4287955235
0.16535001 -0.056741528 0.57959127 4288021798
0.16720635 -0.056833621 0.58053195 4287758883
0.16875152 -0.056819219 0.58038485 4287236138
0.17038138 -0.056833331 0.58052897 4285015091
0.13407995 -0.055336792 0.58148956 4287954980
0.1353523 -0.055206995 0.58012563 4288152614
0.13672997 -0.055122659 0.57923943 4287823905
0.13839489 -0.055154741 0.57957655 4287692831
0.13998763 -0.055157658 0.57960719 4287889444
0.14217013 -0.055390276 0.58205158 4287889445
0.14386183 -0.055428647 0.5824548 4288021030
0.14556079 -0.055468936 0.58287817 4288021030
0.14712605 -0.055457961 0.58276284 4287955237
0.14874566 -0.055467483 0.58286291 4287889442
0.15009971 -0.055378832 0.58193135 4287823905
0.15132168 -0.055243824 0.58051264 4287823905
0.15260227 -0.055132791 0.57934588 4287889442
0.15407375 -0.055092301 0.57892042 4287889442
0.15542555 -0.055010278 0.57805848 4287758368
0.15694661 -0.054989204 0.57783705 4287889442
0.15878755 -0.055079516 0.57878608 4287823905
0.16076796 -0.055215944 0.58021969 4287889440
0.16258609 -0.05529451 0.58104527 4287955233
0.16385399 -0.055186238 0.57990754 4287889440
0.16545321 -0.055190567 0.57995301 4288086819
0.16703832 -0.055190146 0.5799486 4287758626
0.16880409 -0.055248868 0.58056563 4287170347
0.17047963 -0.055277232 0.58086371 4285412929
0.13303302 -0.053966753 0.58387566 4287889441
0.13353173 -0.053526457 0.57911199 4288020515
0.13493244 -0.053453818 0.57832611 4287954978
0.13635121 -0.053389929 0.57763487 4288086819
0.1381951 -0.053492062 0.57873988 4287758368
0.14014764 -0.053633459 0.58026969 4287758370
0.14226796 -0.053835172 0.58245206 4287823907
0.14367919 -0.053767074 0.58171529 4288021030
0.14505266 -0.053686492 0.58084345 4287889444
0.14684477 -0.05376092 0.58164871 4287889442
0.14843553 -0.053760827 0.58164769 4287823905
0.1501532 -0.053806216 0.58213878 4287823903
0.15111354 -0.053582117 0.57971418 4287823903
0.15254813 -0.05352908 0.57914037 4287823905
0.15379813 -0.053413026 0.57788479 4287823905
0.15516485 -0.053339463 0.57708889 4287758368
0.15671377 -0.053329382 0.57697982 4287823905
0.15843458 -0.053377416 0.57749951 4287955235
0.16025904 -0.053459074 0.57838297 4288021028
0.16189569 -0.053477094 0.57857794 4287889440
0.16308175 -0.053347375 0.57717448 4287823903
0.16486268 -0.05341287 0.57788306 4287758624
0.16654536 -0.053445585 0.57823706 4288021028
0.16851854 -0.05357004 0.57958353 4286842922
0.17018129 -0.05359441 0.57984722 4286007378
0.13435216 -0.052261513 0.58267009 4287955235
0.13577251 -0.052194834 0.5819267 4287758368
0.13692451 -0.052027725 0.58006358 4287889442
0.1385507 -0.052042566 0.58022904 4287823905
0.14050722 -0.05217975 0.5817585 4287823907
0.14262424 -0.052372791 0.58391076 4287955237
0.14396052 -0.052278038 0.58285433 4287758370
0.14526765 -0.052174889 0.58170432 4287823907
0.14690541 -0.052191447 0.58188891 4287955235
0.1484808 -0.052185722 0.58182508 4287955235
0.15026078 -0.052251257 0.58255577 4287823905
0.15167765 -0.05219049 0.58187824 4287692831
0.15300183 -0.052099407 0.58086276 4287823905
0.15412773 -0.051943384 0.57912326 4287758368
0.15562169 -0.051913314 0.57878798 4287889442
0.15701222 -0.051849689 0.57807863 4287889442
0.15851693 -0.051824663 0.57779962 4287758368
0.1601488 -0.0518413 0.57798511 4287889444
0.16190182 -0.051896434 0.57859981 4287758366
0.16311194 -0.051778175 0.5772813 4287758368
0.16483815 -0.051824439 0.57779711 4287758626
0.16627401 -0.051779397 0.57729495 4287758372
0.16857249 -0.052001312 0.57976907 4286383654
0.17080352 -0.052198477 0.58196729 4286732898
0.13281077 -0.050687712 0.58290017 4287823907
0.13363826 -0.050398473 0.57957399 4288086053
0.13525046 -0.050408486 0.57968915 4287823905
0.13663736 -0.050335266 0.57884711 4287823905
0.13806777 -0.050279573 0.57820666 4287823905
0.14015922 -0.050463136 0.58031762 4287889444
0.14200522 -0.050555211 0.58137643 4287955237
0.14375964 -0.050613001 0.58204103 4287955235
0.14475121 -0.050403893 0.57963634 4287889442
0.14633176 -0.050402183 0.57961667 4287955235
0.1476662 -0.050316647 0.57863301 4287758368
0.14979227 -0.050499819 0.58073944 4287955235
0.15134157 -0.050486732 0.58058894 4287955235
0.15288043 -0.050470468 0.5804019 4287889440
0.15409927 -0.050349981 0.57901633 4288021028
0.15542701 -0.05026716 0.57806391 4287955235
0.15694354 -0.050246455 0.57782578 4287955235
0.15850985 -0.050241932 0.57777381 4287955235
0.16030581 -0.050309584 0.57855177 4288086821
0.16173957 -0.050263342 0.57801998 4288020515
0.16282041 -0.050109386 0.57624954 4287955235
0.16454168 -0.050153594 0.57675791 4287692833
0.16631304 -0.050212074 0.57743043 4287758372
0.16879365 -0.05048158 0.58052969 4285991206
0.13313745 -0.049214028 0.58433396 4288020515
0.13425985 -0.04904018 0.58226979 4288152614
0.1361319 -0.049141012 0.58346701 4287692833
0.13714597 -0.048933383 0.58100176 4287824419
0.13830926 -0.04878315 0.57921797 4287955235
0.14004801 -0.048836984 0.57985717 4287955235
0.14196482 -0.048951007 0.58121103 4287889442
0.14380839 -0.049037538 0.58223844 4287823905
0.14492774 -0.048877921 0.58034325 4287823905
0.14641228 -0.048843596 0.57993567 4287823907
0.14798792 -0.048840061 0.57989371 4287758370
0.15003729 -0.048991296 0.58168936 4288021030
0.15183377 -0.049057644 0.58247715 4287889442
0.15316644 -0.048974313 0.58148772 4287758368
0.15456963 -0.04891501 0.58078361 4287955233
0.15615574 -0.048914216 0.58077419 4287889440
0.15781209 -0.048935216 0.58102351 4288021026
0.15922135 -0.048879944 0.58036727 4287889442
0.16086079 -0.048895732 0.58055472 4287889442
0.16234694 -0.048865065 0.5801906 4288021028
0.16344662 -0.048719801 0.57846582 4287692831
0.16536584 -0.048819263 0.57964677 4287758626
0.16682206 -0.048781447 0.57919776 4287431461
0.16943546 -0.049079537 0.58273709 4285796394
0.13277692 -0.047486726 0.58275163 4287497507
0.13398282 -0.047349557 0.58106834 4287694886
0.13557397 -0.047350161 0.58107573 4287562785
0.1367044 -0.047191702 0.57913113 4287759653
0.13788141 -0.047052771 0.5774262 4287824676
0.13985312 -0.047185112 0.57905024 4287627296
0.14167875 -0.047265749 0.58003986 4287627296
0.14348085 -0.047336843 0.58091229 4287824419
0.14458364 -0.04717819 0.57896531 4287890212
0.14612278 -0.047163818 0.57878894 4287692835
0.14771073 -0.047165334 0.57880753 4287692835
0.149772 -0.04731635 0.58066082 4287955237
0.15151039 -0.04736327 0.5812366 4287823907
0.15297994 -0.047326036 0.58077967 4287758368
0.15443724 -0.047285825 0.5802862 4288021028
0.15613684 -0.047319863 0.58070391 4287758366
0.15783222 -0.047351949 0.58109766 4287692829
0.15918024 -0.047280218 0.58021742 4288021026
0.16073164 -0.047269724 0.58008862 4287823903
0.16201848 -0.047182381 0.57901675 4287955235
0.16332963 -0.047103744 0.57805175 4287758626
0.16517773 -0.04717999 0.57898742 4287890471
0.16693282 -0.047228463 0.57958227 4287039013
0.16938019 -0.047470052 0.58254701 4285076780
0.14302114 -0.046111941 0.58553565 4287562787
0.14426109 -0.045996618 0.58407128 4287628580
0.14552291 -0.045890711 0.58272648 4287628067
0.14698207 -0.045848668 0.5821926 4287561762
0.14873736 -0.045898896 0.58283037 4287758372
0.15036802 -0.045910016 0.58297157 4287627298
0.15235089 -0.046027306 0.58446097 4287692833
0.15375249 -0.045968376 0.58371264 4287758626
0.15539992 -0.045983396 0.58390337 4288021028
0.15673408 -0.045906361 0.5829252 4287758367
0.15811892 -0.045845564 0.5821532 4287954978
0.15949386 -0.045783147 0.58136058 4287889440
0.16083711 -0.045712952 0.58046925 4287889694
0.16239561 -0.045704704 0.58036453 4288021028
0.16384961 -0.045667496 0.57989204 4287824676
0.16571757 -0.045745276 0.58087969 4287627299
0.16746964 -0.045789883 0.58144611 4286711075
0.16979752 -0.045989614 0.58398235 4284553770
0.15139866 -0.044619124 0.58696735 4287365667
0.15316224 -0.044665206 0.58757353 4287628582
0.15431128 -0.044532973 0.58583403 4287496225
0.15580271 -0.044501264 0.58541685 4287496223
0.15680923 -0.0443331 0.58320469 4287693860
0.15789039 -0.044189211 0.58131182 4287628067
0.15917394 -0.044104274 0.58019447 4287561760
0.16076081 -0.04410423 0.58019388 4287561762
0.16221629 -0.044068485 0.57972366 4287758626
0.1639736 -0.044114642 0.58033085 4287692835
0.16554958 -0.044111598 0.58029079 4287561763
0.16774991 -0.044273391 0.58241922 4286711590
0.16349488 -0.042817589 0.58429307 4287562526
0.16495468 -0.042781681 0.58380306 4287824165
0.16626261 -0.042707454 0.5827902 4287562789
