# .PCD v0.7 - Point Cloud Data file format
VERSION 0.7
FIELDS x y z rgba
SIZE 4 4 4 4
TYPE F F F U
COUNT 1 1 1 1
WIDTH 713
HEIGHT 1
VIEWPOINT 0 0 0 1 0 0 0
POINTS 713
DATA ascii
0.075211719 0.039330512 0.59391767 4292534496
0.076993406 0.03941093 0.59513205 4292534242
0.07139644 0.040632896 0.58924538 4292863461
0.072764054 0.040496994 0.58727455 4292731875
0.074545957 0.040592559 0.58866042 4292731621
0.076438271 0.04074293 0.59084105 4292665828
0.078223564 0.040831219 0.59212136 4292534242
0.080376476 0.041103918 0.59607595 4292402656
0.098082475 0.041008055 0.59468579 4292337115
0.099132828 0.040771022 0.59124845 4292271322
0.10017707 0.040539134 0.58788568 4292402910
0.10157779 0.040456545 0.58668798 4292731873
0.071386501 0.042238809 0.5891633 4292797668
0.072991587 0.042235054 0.58911097 4292666082
0.074701905 0.042291038 0.58989185 4292731875
0.076767333 0.042541441 0.59338456 4292600035
0.078612961 0.0426622 0.59506893 4292468449
0.095617846 0.042989336 0.59963197 4292271320
0.097114116 0.042925715 0.59874457 4292271320
0.098129176 0.042655028 0.59496891 4292402908
0.099198475 0.042416368 0.59164 4292468701
0.10010847 0.042118348 0.58748311 4292534494
0.10153491 0.042043589 0.58644032 4292666080
0.10324928 0.042088531 0.58706719 4292468701
0.066660531 0.043922033 0.59012604 4292073945
0.068012759 0.043753494 0.5878616 4292666082
0.069636241 0.043763217 0.58799225 4292600289
0.071090944 0.043668829 0.58672404 4292797668
0.072671078 0.04365395 0.58652413 4292863461
0.074499331 0.043785546 0.58829224 4292995047
0.076367535 0.043934558 0.5902943 4292863461
0.078270964 0.044097248 0.59248018 4292863461
0.080000788 0.044157505 0.59328979 4292665828
0.082032152 0.044378508 0.59625912 4292534242
0.084260419 0.044695333 0.6005159 4292599776
0.089303471 0.044753052 0.60129142 4292402908
0.090704396 0.044633072 0.59967941 4292402906
0.091975518 0.044454619 0.59728175 4292402906
0.093249172 0.044283599 0.59498394 4292468699
0.094629087 0.04416804 0.59343135 4292337113
0.096253656 0.044168647 0.59343952 4292468699
0.097459987 0.043980498 0.59091157 4292468701
0.098670527 0.043800354 0.5884912 4292666082
0.099829376 0.04360342 0.58584523 4292863461
0.10106979 0.043447763 0.58375388 4292731875
0.1024142 0.043340966 0.58231896 4292929252
0.10408561 0.043373704 0.58275884 4292731873
0.065295637 0.045710769 0.59238786 4291942357
0.066775538 0.045614801 0.59114414 4291547601
0.068325438 0.045570053 0.59056425 4292271324
0.070058972 0.045647018 0.59156168 4292666082
0.071476616 0.045519341 0.58990705 4292600289
0.073133305 0.04554617 0.59025472 4292797668
0.074913494 0.045647096 0.59156269 4292995047
0.076735042 0.045768421 0.593135 4292929254
0.078630798 0.045928068 0.59520394 4292797668
0.080272377 0.045935787 0.59530395 4292731875
0.082080781 0.046036765 0.59661257 4292600289
0.084046736 0.046220448 0.598993 4292666082
0.085928723 0.046351809 0.60069537 4292666082
0.087577052 0.046354573 0.60073119 4292731875
0.089022778 0.046251968 0.59940147 4292468701
0.090639934 0.046240523 0.59925318 4292402908
0.092040874 0.046121154 0.5977062 4292402908
0.09338855 0.045979716 0.59587324 4292468701
0.094751544 0.045850549 0.5941993 4292534494
0.096411325 0.045866929 0.59441161 4292666080
0.097708613 0.045713175 0.59241903 4292797666
0.099119134 0.045616549 0.59116679 4292797668
0.10033373 0.045434307 0.58880502 4292863461
0.10171495 0.045332078 0.58748019 4292863461
0.1029857 0.04518456 0.58556843 4292797666
0.10454675 0.045166984 0.58534068 4292731871
0.063451417 0.047164783 0.59030551 4291744978
0.064874843 0.047026139 0.58857024 4291942357
0.066499323 0.047036413 0.58869886 4291942357
0.068052612 0.046997044 0.58820611 4291744980
0.069703922 0.047025617 0.58856374 4292731875
0.071185142 0.046940744 0.58750147 4292666082
0.07280831 0.046951152 0.58763176 4292929254
0.074488737 0.046997238 0.58820856 4292929254
0.076331817 0.047141828 0.59001821 4292995047
0.078176655 0.0472815 0.5917663 4292929254
0.079889499 0.047337286 0.59246451 4292863461
0.081523716 0.047345195 0.59256351 4292797668
0.083456002 0.047522523 0.59478289 4292731875
0.085226066 0.047602456 0.59578335 4292731875
0.086937062 0.047647029 0.59634119 4292797668
0.088266365 0.047484614 0.59430844 4292666080
0.089690447 0.047378138 0.5929758 4292468701
0.091205046 0.047322411 0.59227836 4292534494
0.092705451 0.047261398 0.59151471 4292534494
0.094146483 0.047172721 0.59040487 4292600287
0.095595397 0.047090925 0.5893811 4292666080
0.097175278 0.047075283 0.58918536 4292731875
0.098730318 0.047048315 0.58884782 4292863461
0.10019525 0.046979968 0.58799237 4292863461
0.10126222 0.04673012 0.58486533 4292797668
0.10253776 0.046582799 0.58302152 4292666082
0.10382079 0.046443351 0.58127618 4292731873
0.10553022 0.04649597 0.58193475 4292666080
0.1075989 0.046702959 0.58452541 4289310635
0.062090598 0.048979748 0.59272909 4291416013
0.06356775 0.048868913 0.59138781 4291810771
0.06517987 0.04886476 0.59133756 4291942357
0.066955782 0.048980635 0.59273982 4292008150
0.068521872 0.048941158 0.59226209 4291547599
0.070139065 0.048939168 0.59223801 4292468701
0.071574502 0.04881331 0.59071493 4292666080
0.073116019 0.048763756 0.59011525 4292929254
0.074537337 0.048637912 0.58859235 4293060840
0.076400757 0.048799772 0.59055108 4292995047
0.078268282 0.048957501 0.59245986 4292863461
0.080205612 0.049151607 0.59480882 4293060840
0.081666678 0.049051937 0.59360266 4292863461
0.083498336 0.049174394 0.59508461 4292929254
0.085228637 0.049233623 0.59580135 4292929254
0.08711601 0.049379665 0.59756869 4292797666
0.088312477 0.049135912 0.59461892 4292600285
0.089736283 0.049025174 0.59327883 4292534492
0.091241464 0.048962045 0.59251487 4292666080
0.092849068 0.048955124 0.59243107 4292666082
0.094331682 0.048883662 0.59156626 4292797668
0.095779911 0.048797097 0.59051871 4292731875
0.097308233 0.048753526 0.58999145 4292863461
0.099078715 0.048830725 0.59092569 4292929254
0.10053242 0.048751839 0.58997101 4292666082
0.10181896 0.048595652 0.58808094 4292731875
0.10287435 0.048335716 0.58493531 4292731875
0.1042662 0.048239414 0.58376992 4292534494
0.10582519 0.04822218 0.58356136 4292337115
0.10770355 0.048348822 0.58509392 4292468701
0.059140451 0.050852589 0.59567523 4290692288
0.060498565 0.050625589 0.59301621 4291021253
0.061803676 0.050367247 0.58999008 4291218632
0.063364327 0.05032501 0.5894953 4291481804
0.065026306 0.050363347 0.58994436 4291547597
0.066745698 0.050443221 0.59087998 4292008150
0.068382815 0.050458603 0.59106016 4292008150
0.069957159 0.050428025 0.590702 4291547599
0.071482539 0.050364334 0.58995593 4292337117
0.072846808 0.050192442 0.58794242 4292731875
0.074237719 0.050045941 0.58622634 4292863461
0.075933576 0.050106857 0.58693993 4293060840
0.077691279 0.050205223 0.58809215 4292929254
0.079506561 0.050336048 0.58962458 4292929254
0.080994584 0.050258607 0.58871746 4292995047
0.082857206 0.050412089 0.59051532 4292666852
0.084797427 0.050606012 0.59278691 4292929254
0.086603954 0.050714377 0.59405625 4292797666
0.087836355 0.050488736 0.59141314 4292666080
0.089170024 0.050328407 0.58953512 4292534494
0.090708308 0.050287217 0.58905262 4292731873
0.092232361 0.050239708 0.58849609 4292797668
0.093669131 0.050147105 0.58741134 4292863461
0.095083296 0.050045725 0.58622384 4292797668
0.09684626 0.050128244 0.58719045 4292797668
0.098509267 0.050157182 0.58752942 4292797668
0.10011269 0.050155342 0.58750784 4292797668
0.10124744 0.049922463 0.58477998 4292666082
0.10247185 0.049740355 0.58264679 4292666082
0.10378949 0.04960838 0.58110088 4292534494
0.10556597 0.049696397 0.58213186 4291613392
0.10736518 0.049792338 0.58325571 4292402649
0.10931136 0.049952634 0.58513337 4291942098
0.059217766 0.05255058 0.59645396 4290560702
0.060750473 0.052465249 0.59548545 4290758081
0.06207864 0.052212346 0.59261495 4291152839
0.063623257 0.05214972 0.59190416 4291416011
0.065197632 0.052113995 0.59149867 4291547597
0.067022473 0.052275363 0.5933302 4291942357
0.068694659 0.052312836 0.59375554 4292008150
0.070430458 0.05239591 0.59469843 4292073943
0.071922287 0.052297834 0.59358525 4291942359
0.073293112 0.052118041 0.59154457 4292797668
0.074663892 0.051945981 0.58959168 4292863461
0.076270841 0.051942032 0.58954686 4292929254
0.078039378 0.05204602 0.59072715 4292929000
0.079647429 0.05204092 0.59066927 4292929000
0.081191726 0.051995207 0.59015042 4292929254
0.082962848 0.052093692 0.59126824 4292929254
0.084856734 0.052264024 0.59320152 4292929254
0.086696737 0.052395407 0.59469271 4292797668
0.088054284 0.052235741 0.59288049 4292731875
0.089617655 0.052201737 0.59249455 4292731875
0.091058165 0.052098654 0.59132457 4292797668
0.092575401 0.052042298 0.59068489 4292995047
0.09395887 0.051913965 0.58922833 4292731875
0.095545448 0.051900297 0.58907318 4292731875
0.097125508 0.051883593 0.58888358 4292797668
0.098890319 0.051964518 0.58980209 4292863461
0.10032509 0.051872201 0.5887543 4292666082
0.10178432 0.051795248 0.58788085 4292666082
0.10300736 0.051602367 0.58569163 4292337115
0.10457765 0.051586691 0.58551371 4291679185
0.10619771 0.051595658 0.58561552 4292205529
0.10803775 0.051709663 0.58690947 4292073430
0.11004899 0.051901057 0.58908182 4291876562
0.059147719 0.054118004 0.59574842 4290297530
0.060599525 0.053959705 0.59400582 4290494909
0.061968464 0.053737812 0.59156317 4290823874
0.063436858 0.053611264 0.59017009 4291218632
0.065121651 0.053669341 0.5908094 4291547597
0.06680917 0.053726792 0.59144187 4291810771
0.06850563 0.05378855 0.59212172 4291942357
0.070050903 0.053731486 0.59149355 4292139736
0.071671844 0.053733736 0.59151828 4291810771
0.073007442 0.053526677 0.58923894 4291876564
0.074632324 0.05353608 0.58934242 4292666082
0.076225907 0.053523101 0.58919954 4292666082
0.077958338 0.053606141 0.5901137 4292863461
0.079342477 0.053451173 0.58840775 4292995047
0.080869526 0.053396732 0.58780843 4292929254
0.082571104 0.053457402 0.5884763 4292929254
0.084506266 0.053664085 0.59075153 4293060840
0.086165383 0.053691003 0.59104788 4292731875
0.087689884 0.053634595 0.59042692 4292666082
0.089034066 0.053471927 0.58863622 4292863461
0.090480611 0.05337543 0.58757395 4292929254
0.091974661 0.053309832 0.58685184 4292732645
0.093506008 0.053267729 0.58638835 4292863461
0.095153004 0.053291824 0.58665359 4292666082
0.096696086 0.053257883 0.58627993 4292666082
0.098351821 0.053286079 0.58659035 4292731875
0.099822417 0.053214684 0.5858044 4292600289
0.10141312 0.053208549 0.58573687 4292073945
0.10307967 0.053241789 0.58610278 4291876564
0.10469206 0.053246468 0.58615428 4292139736
0.10631508 0.053256322 0.58626276 4292008150
0.10785706 0.053225897 0.58592784 4291942357
0.10976285 0.053373262 0.5875501 4291810771
0.061078459 0.056023818 0.5987004 4290692290
0.062425721 0.055764414 0.59592825 4290823876
0.063892543 0.055622287 0.59440941 4291218121
0.065418661 0.055537559 0.59350395 4291481293
0.066981763 0.055487573 0.59296978 4291678672
0.068631984 0.055510413 0.59321386 4291876051
0.070329167 0.055569299 0.59384316 4292008150
0.071931921 0.055552606 0.59366477 4292205529
0.07332091 0.0553752 0.59176892 4291613392
0.074743569 0.055230342 0.59022087 4292205529
0.076482035 0.055320028 0.59117931 4292731873
0.07816834 0.055369064 0.59170336 4292797668
0.079716496 0.055320233 0.59118152 4292929254
0.081221052 0.055243693 0.59036356 4293060840
0.083028264 0.055371977 0.59173447 4293060840
0.084812552 0.055480354 0.59289265 4292929254
0.08645837 0.055495791 0.59305763 4292797668
0.087742366 0.055282686 0.59078026 4292666082
0.089228198 0.055202156 0.58991969 4292731875
0.090569474 0.055036653 0.58815104 4292863461
0.092192136 0.055044927 0.58823943 4292601059
0.093623534 0.054940674 0.58712536 4292601059
0.095311508 0.054987974 0.58763081 4292666082
0.096903443 0.054979213 0.58753717 4292731875
0.098888032 0.055189874 0.58978844 4292205531
0.10041683 0.055143487 0.58929271 4291810773
0.10227267 0.055275314 0.59070146 4292073945
0.1038002 0.055228356 0.59019965 4292139736
0.10558941 0.055319943 0.59117842 4292008150
0.10693328 0.055178959 0.58967179 4291942357
0.10860192 0.055207267 0.58997428 4291679185
0.11039754 0.055298343 0.59094757 4291613392
0.11215995 0.055370398 0.5917176 4291481806
0.061181519 0.057758778 0.59971064 4290494911
0.062456459 0.057422753 0.59622169 4290626497
0.063814767 0.057178527 0.59368587 4290889410
0.06532567 0.057079751 0.59266031 4291152582
0.06677255 0.056931179 0.59111768 4291612879
0.068377391 0.056921124 0.59101325 4291547599
0.069851018 0.056804832 0.58980578 4291744978
0.071499757 0.056832977 0.59009802 4291942357
0.072894238 0.056662239 0.58832526 4292008150
0.074386939 0.056573581 0.58740473 4291679185
0.076046504 0.056612886 0.58781284 4292534494
0.077651292 0.056610636 0.58778948 4292731875
0.079288542 0.056631658 0.58800775 4292863461
0.080818675 0.056576867 0.58743882 4292863461
0.082684413 0.056754559 0.58928382 4292995047
0.084398627 0.056823447 0.58999908 4293060840
0.085904613 0.056752183 0.58925915 4292863461
0.087220483 0.056560259 0.58726639 4292797668
0.088541746 0.056378707 0.58538133 4292863461
0.090054691 0.056323495 0.58480805 4292797668
0.091759294 0.056387983 0.58547765 4292731875
0.093398996 0.056411061 0.58571726 4292797668
0.095014244 0.056418844 0.58579808 4292468701
0.09652368 0.056364577 0.58523464 4292402908
0.098351702 0.056495078 0.58658963 4291744978
0.10007558 0.056562539 0.58729005 4292205531
0.10200498 0.056742188 0.58915538 4292271324
0.10365666 0.056764163 0.58938354 4292073943
0.10524487 0.056751244 0.58924937 4291876564
0.10685112 0.056748286 0.58921868 4291613392
0.1088086 0.056929193 0.59109706 4291679185
0.11059806 0.057018172 0.59202093 4291350220
0.11208145 0.056949068 0.59130341 4291021255
0.1134894 0.056844153 0.59021407 4290955460
0.062988907 0.059557069 0.60130453 4290494909
0.064348988 0.059294727 0.59865588 4290758081
0.065557472 0.058909185 0.59476334 4290823874
0.067026556 0.058770817 0.59336632 4291218121
0.068581954 0.058712877 0.59278136 4291416013
0.070271157 0.058769532 0.59335333 4291679185
0.071777701 0.058674309 0.59239197 4291942357
0.07334847 0.058634631 0.59199136 4292008150
0.074787684 0.058493771 0.5905692 4292073943
0.076490551 0.058560725 0.59124517 4291679185
0.07794404 0.058437936 0.59000546 4292666082
0.079587243 0.058459476 0.59022295 4292797668
0.081178218 0.058442563 0.59005219 4293060840
0.083127528 0.058679257 0.59244192 4293258219
0.084745698 0.05867761 0.59242529 4292995047
0.086293288 0.058628086 0.59192526 4292929254
0.087642357 0.058447983 0.5901069 4293060840
0.089054294 0.058315564 0.58876997 4292731875
0.090575218 0.058257956 0.58818835 4292731873
0.092276037 0.058316045 0.5887748 4292731873
0.093948245 0.058354363 0.58916169 4292534494
0.095451944 0.058288496 0.58849669 4291876564
0.09712062 0.058323883 0.58885396 4292073943
0.098879769 0.058411557 0.58973914 4292337115
0.10062484 0.058488239 0.59051335 4292271324
0.10246412 0.058616389 0.59180719 4292139738
0.10412194 0.058638364 0.59202904 4291942357
0.10566531 0.058596201 0.59160334 4291613392
0.10717029 0.058534335 0.59097874 4291547086
0.061430071 0.061287597 0.60214698 4290100151
0.062802427 0.061020657 0.59952432 4290363323
0.064158298 0.060751695 0.59688181 4290692288
0.065466113 0.060451712 0.59393448 4290758081
0.066928625 0.060305644 0.59249938 4290955460
0.068445496 0.0602143 0.59160191 4291350220
0.069897354 0.060071308 0.59019703 4291350220
0.071334898 0.059922747 0.58873743 4291613392
0.072932102 0.059911899 0.58863086 4291679185
0.074590892 0.059951022 0.58901525 4291876564
0.076300658 0.06002859 0.58977735 4291876564
0.077855468 0.05998357 0.58933502 4291942359
0.079431824 0.059956636 0.58907038 4292666082
0.081023403 0.059942033 0.58892691 4292995047
0.082700908 0.059990328 0.58940142 4293258219
0.08423268 0.059933085 0.58883899 4293126633
0.085787199 0.059893876 0.58845377 4292929254
0.087288894 0.059819903 0.58772701 4292929254
0.088566229 0.059597634 0.58554322 4292863461
0.090131395 0.059573505 0.58530617 4292797666
0.091916345 0.059692953 0.58647972 4292534494
0.09376137 0.059846647 0.58798975 4291810771
0.095319077 0.059814863 0.58767748 4292073943
0.096931502 0.059817895 0.58770728 4292337115
0.098512925 0.059802014 0.58755124 4292205529
0.10019714 0.059848037 0.5880034 4292073945
0.1018038 0.059847016 0.58799338 4292008152
0.10372041 0.060025401 0.589746 4291679185
0.10519437 0.059946071 0.58896661 4291481806
0.10705411 0.060085662 0.59033805 4291152841
0.10921244 0.060386203 0.59329087 4290954949
0.063187622 0.063044898 0.60320151 4290363323
0.064729579 0.062939867 0.60219657 4290495163
0.065962441 0.062546968 0.59843737 4290758081
0.067455739 0.062414061 0.59716576 4290823874
0.068755567 0.062112663 0.59428203 4290955462
0.070301674 0.062042527 0.593611 4291350220
0.071679145 0.0618301 0.59157854 4291350220
0.073348157 0.061872981 0.5919888 4291679185
0.074937418 0.061848193 0.59175164 4291810773
0.0767828 0.062031358 0.59350413 4292139738
0.078234904 0.061895806 0.59220719 4291613394
0.079706892 0.061781161 0.59111029 4292271324
0.081198089 0.06168567 0.59019667 4292929254
0.08286465 0.061724521 0.59056836 4292995047
0.084427409 0.061686046 0.59020025 4292929254
0.085963055 0.061629586 0.58966005 4292929254
0.087549537 0.061610971 0.58948195 4292797666
0.089011163 0.061506756 0.58848482 4292534494
0.090549521 0.061458327 0.58802146 4292205529
0.092305332 0.0615566 0.58896172 4291942357
0.09414506 0.061706498 0.59039593 4292205529
0.095862716 0.061772689 0.59102923 4292271322
0.097517014 0.061796531 0.59125733 4292139736
0.099248849 0.061867923 0.5919404 4292008150
0.10097315 0.061932411 0.59255743 4291876564
0.10250789 0.061880425 0.59206003 4291679185
0.10429336 0.061979059 0.59300375 4291416013
0.10599273 0.062024295 0.59343654 4291021255
0.10792383 0.062201709 0.59513402 4290758081
0.10990118 0.062400125 0.59703243 4290100151
0.061600767 0.064761221 0.60382015 4291481804
0.062919006 0.064419851 0.60063726 4291416011
0.06442602 0.064284198 0.59937251 4291284425
0.065871626 0.064095534 0.59761345 4291152839
0.067281164 0.063881762 0.59562027 4290955460
0.068643272 0.063634127 0.59331137 4291152839
0.070063554 0.063450627 0.59160042 4291152841
0.071591876 0.063371032 0.59085834 4291416015
0.073143013 0.063314699 0.5903331 4291547601
0.074703671 0.06326887 0.5899058 4291744980
0.076373145 0.06331519 0.59033763 4291876566
0.077952117 0.063286118 0.59006661 4291942359
0.079262063 0.063044243 0.58781141 4291679187
0.080714963 0.062923431 0.586685 4292600289
0.082146823 0.062791243 0.5854525 4292995047
0.08382687 0.062850192 0.58600211 4292995047
0.085354023 0.062794454 0.58548242 4292863461
0.087025866 0.062845245 0.58595598 4292731873
0.088612147 0.062833533 0.58584678 4292271322
0.090250641 0.062858604 0.58608055 4291876564
0.091987543 0.062950142 0.58693403 4292468701
0.093763888 0.063065067 0.58800554 4292337115
0.095572703 0.06319759 0.58924121 4292139736
0.09728092 0.063260302 0.58982587 4292008150
0.099131949 0.063412316 0.59124321 4291744978
0.10092646 0.063523881 0.59228343 4291547599
0.10243884 0.063457146 0.59166121 4291218634
0.10422131 0.0635572 0.59259409 4290955460
0.10596198 0.063629083 0.59326434 4290626495
0.06312149 0.066275403 0.60257018 4292402908
0.064666145 0.066169403 0.60160643 4292468701
0.066099957 0.06595806 0.59968495 4292666080
0.067551345 0.065774076 0.59801215 4292600287
0.068867892 0.065470584 0.59525287 4292468701
0.070476927 0.065452762 0.59509081 4292402908
0.072076641 0.065427281 0.59485912 4292008152
0.073736668 0.065456465 0.59512448 4292073945
0.075230211 0.065339789 0.5940637 4291810773
0.076870814 0.065353073 0.59418446 4291942359
0.078258552 0.065155283 0.59238619 4292008152
0.079524659 0.064866304 0.58975881 4292073945
0.081026472 0.064777263 0.5889492 4291876566
0.082672946 0.064805076 0.58920211 4292929254
0.084291898 0.064810671 0.58925295 4292797668
0.085769489 0.06470941 0.5883323 4292600289
0.087492086 0.064793311 0.58909512 4292205529
0.089195214 0.064860016 0.58970165 4292073943
0.090885177 0.064914964 0.5902012 4292402908
0.092541993 0.064944722 0.59047174 4292337115
0.094310403 0.065050423 0.59143281 4292139736
0.096163213 0.065209813 0.59288192 4291876564
0.097887881 0.065278441 0.59350592 4291613392
0.09989658 0.065531164 0.59580362 4291284427
0.10175512 0.06567885 0.59714639 4291087046
0.10355972 0.065787606 0.59813517 4290758081
0.0597146 0.067798302 0.60145819 4292271322
0.061052583 0.067458846 0.59844679 4292337115
0.062529296 0.067286402 0.59691697 4292271322
0.063969456 0.067084402 0.59512496 4292534494
0.065524854 0.067010276 0.5944674 4292731873
0.066926025 0.066785842 0.59247637 4292929254
0.068455786 0.066697299 0.5916909 4292929254
0.070060462 0.066684157 0.59157431 4292863461
0.071781263 0.066779643 0.59242135 4292995047
0.07339824 0.066776447 0.59239304 4292797668
0.075008877 0.066767752 0.59231591 4292863461
0.076531664 0.066682875 0.59156293 4292731875
0.077992685 0.066548824 0.59037369 4292666082
0.079214729 0.066220418 0.58746034 4292534496
0.080805853 0.066207491 0.58734566 4292534496
0.082317002 0.066130802 0.58666533 4292139738
0.083954848 0.066156894 0.58689678 4292534494
0.08536081 0.066002712 0.58552897 4292139736
0.087127872 0.066128261 0.5866428 4292271322
0.08879026 0.066171274 0.58702433 4292337115
0.090618618 0.066334248 0.58847016 4292271322
0.092197694 0.066312239 0.5882749 4292073943
0.093828648 0.066327661 0.58841169 4291942359
0.095547378 0.06640356 0.58908504 4291679187
0.097502798 0.066638716 0.59117115 4291218634
0.099473752 0.066876635 0.59328181 4290955460
0.10144669 0.067108229 0.59533638 4290560702
0.059738226 0.069470972 0.60169613 4292205529
0.061231524 0.06929832 0.60020077 4292337115
0.062666588 0.069070503 0.59822762 4292600287
0.064055435 0.068804629 0.59592485 4292731875
0.065640599 0.068757594 0.59551746 4292666082
0.067198828 0.068685308 0.59489137 4292863461
0.06867715 0.068536691 0.59360421 4292797668
0.070221424 0.068459243 0.59293342 4292929254
0.071829468 0.068446063 0.59281921 4292995047
0.073539481 0.068528466 0.59353298 4292929254
0.075148031 0.068514816 0.59341472 4292731875
0.076869786 0.068602771 0.59417653 4292863461
0.078222431 0.068364494 0.59211278 4292797668
0.079595111 0.068153039 0.59028131 4292731875
0.080994904 0.067972742 0.58871979 4292600289
0.082722358 0.0680691 0.58955431 4292271324
0.084365338 0.068093576 0.58976632 4291942359
0.085880116 0.06801562 0.58909112 4292271324
0.087570824 0.068077289 0.58962524 4292337115
0.089291312 0.068159461 0.59033698 4292139736
0.091118 0.068318352 0.59171313 4292073943
0.092826821 0.068384849 0.59228909 4291810771
0.094452664 0.068388991 0.59232497 4291481806
0.09621159 0.068487734 0.59318018 4291152841
0.098173901 0.068725571 0.59524012 4290823874
0.057956431 0.070950404 0.60028809 4292206301
0.059365053 0.070672579 0.59793746 4292272092
0.060745288 0.070376754 0.59543461 4292337885
0.062102299 0.070070177 0.59284079 4292469471
0.063402407 0.069716632 0.58984953 4292731873
0.065055065 0.069758676 0.59020525 4292666080
0.066745527 0.069838248 0.59087849 4292797666
0.068376541 0.069853306 0.59100592 4292797666
0.069814563 0.06967508 0.58949798 4292731875
0.071398579 0.069647312 0.58926302 4292929254
0.072924152 0.069565013 0.58856672 4292863461
0.07457637 0.069604471 0.58890057 4292929254
0.076180711 0.069598518 0.5888502 4292797668
0.077766873 0.069576554 0.58866441 4292797668
0.07920143 0.069422588 0.58736175 4292534496
0.08055196 0.069202565 0.58550018 4291942357
0.082182966 0.069227375 0.58571011 4291942357
0.083883733 0.06930887 0.58639961 4292402908
0.085507154 0.06932462 0.58653283 4292205531
0.087329663 0.069498204 0.58800149 4292073943
0.089059085 0.069592774 0.58880162 4291942357
0.090969332 0.069822781 0.59074765 4291876564
0.092628598 0.069855489 0.59102434 4291481806
0.094392568 0.06996467 0.59194809 4291284427
0.09631408 0.070184976 0.59381205 4290626497
0.057924498 0.072552413 0.59995735 4292206301
0.059373338 0.072318241 0.59802091 4292337887
0.060907882 0.072198212 0.59702837 4292469473
0.06226467 0.071879253 0.59439081 4292535264
0.063706458 0.071672156 0.59267825 4292797666
0.065285608 0.07162603 0.59229684 4292797666
0.066996463 0.071723141 0.59309989 4292797666
0.068547323 0.071648434 0.59248209 4292863459
0.070005089 0.071482107 0.59110671 4292863459
0.071612313 0.071472466 0.59102696 4292731873
0.073105812 0.071352251 0.59003288 4292863461
0.074705616 0.071338743 0.58992118 4292995047
0.076238461 0.071263209 0.58929658 4292863461
0.077931434 0.071337394 0.58991003 4292402908
0.079548419 0.071340412 0.589935 4291744976
0.081014477 0.071210667 0.58886206 4292205529
0.082724057 0.071295843 0.58956641 4292271322
0.084386662 0.071338043 0.58991539 4292271322
0.086132251 0.071447507 0.59082061 4291876564
0.087949313 0.071611136 0.5921737 4291744978
0.089717381 0.071729675 0.59315389 4291416013
0.091647968 0.071971625 0.5951547 4291350220
0.093355387 0.072032936 0.59566164 4290955462
0.055836383 0.073604248 0.59519237 4292402910
0.057362001 0.073473021 0.59413123 4292337887
0.058857899 0.073312022 0.59282929 4292403680
0.060394887 0.073209457 0.59199995 4292601059
0.061769608 0.072920695 0.58966488 4292601059
0.063322358 0.072851434 0.58910483 4292863461
0.064895414 0.072808407 0.58875686 4292863459
0.066508837 0.072811648 0.58878309 4292863461
0.067946695 0.072627075 0.58729059 4292731873
0.069453202 0.072522722 0.5864467 4292797666
0.071126588 0.072593391 0.58701819 4292731873
0.072716698 0.072577834 0.58689237 4292863459
0.074330211 0.072585791 0.58695674 4292534494
0.077486351 0.072534375 0.58654094 4291679185
0.079166844 0.072604164 0.58710527 4292205529
0.080896087 0.072714992 0.58800149 4292337115
0.082569212 0.072772041 0.58846283 4292139736
0.084131673 0.072731242 0.58813286 4291942357
0.085738644 0.072729737 0.5881207 4291876564
0.087598309 0.072938681 0.58981031 4291547597
0.089354038 0.073055096 0.59075171 4291218632
0.091370344 0.073376641 0.59335184 4290758335
0.092963442 0.073353015 0.59316081 4290494909
0.054502703 0.075640865 0.59842461 4292402910
0.055825636 0.075217836 0.59507781 4292535266
0.057386152 0.075129807 0.59438139 4292666852
0.058959972 0.075063571 0.59385741 4292601059
0.060582068 0.075060703 0.5938347 4292666852
0.062064432 0.074889377 0.59247929 4292863461
0.063620254 0.074813157 0.59187627 4292797668
0.065138102 0.074697159 0.5909586 4292797668
0.066695526 0.07463108 0.5904358 4292666082
0.06817887 0.07448718 0.58929735 4292731873
0.069734551 0.074427143 0.58882236 4292797666
0.07144583 0.074532129 0.58965296 4292863459
0.073174007 0.074649721 0.59058326 4292534494
0.074808836 0.074669063 0.59073627 4291810771
0.076376982 0.074622422 0.59036732 4292073943
0.077997655 0.074627988 0.59041131 4292205529
0.079676732 0.074688062 0.59088659 4292139736
0.081233852 0.07463371 0.5904566 4292073943
0.082846634 0.074631609 0.59043998 4291810771
0.084492929 0.074659206 0.59065831 4291481806
0.086232379 0.074766539 0.59150743 4291152841
0.088117726 0.07499408 0.59330761 4290889667
0.089976542 0.075191222 0.59486729 4290626749
0.054097816 0.076703697 0.59397906 4292402910
0.055430666 0.076301895 0.59086758 4292534496
0.057058267 0.076317094 0.5909853 4292732645
0.058600247 0.076220095 0.59023416 4292601059
0.060149372 0.076137349 0.58959335 4292666852
0.061762512 0.076137833 0.58959711 4292797668
0.063256182 0.07599476 0.58848917 4292731875
0.064819269 0.075940117 0.58806604 4292666082
0.066283591 0.075775214 0.58678907 4292731875
0.067942798 0.07583563 0.58725691 4292666080
0.069509089 0.07579194 0.58691859 4292731873
0.071199857 0.075882897 0.58762294 4292402908
0.072879314 0.075958036 0.5882048 4291876564
0.074599177 0.076071136 0.58908063 4292073943
0.07628186 0.076142341 0.58963203 4292337115
0.077809721 0.076059267 0.58898872 4292139736
0.079361513 0.076002471 0.5885489 4291876564
0.080882438 0.075918972 0.58790231 4291744978
0.082492515 0.075920768 0.5879162 4291547599
0.08419773 0.076008379 0.58859468 4291350218
0.085954204 0.076138116 0.58959931 4290823874
0.08805234 0.07656014 0.59286737 4290429116
0.055666625 0.078249812 0.59338284 4292731875
0.057183381 0.078104533 0.59228116 4292863461
0.058685146 0.077947363 0.59108931 4292797668
0.060289726 0.077931516 0.59096915 4292863461
0.061973315 0.078015961 0.59160948 4292797668
0.06355802 0.077974789 0.59129727 4292666082
0.065006122 0.07777223 0.58976126 4292666082
0.066507004 0.0776411 0.58876687 4292666080
0.068315797 0.077867128 0.59048086 4292468701
0.070127249 0.078085683 0.59213823 4292008150
0.071791932 0.078134626 0.59250939 4292008150
0.073302828 0.078017734 0.59162295 4292271322
0.075005613 0.07810571 0.5922901 4292139736
0.076769404 0.078252152 0.5934006 4292008150
0.078356192 0.078215845 0.59312528 4291679185
0.079908468 0.078147262 0.59260517 4291547597
0.081486702 0.078106284 0.59229445 4291218632
0.083252773 0.078243434 0.5933345 4290889921
0.05551507 0.079655468 0.59176731 4292666080
0.056907322 0.079339758 0.58942187 4292731875
0.058312722 0.079059273 0.58733815 4292797668
0.059911054 0.079048395 0.58725733 4292797668
0.061595213 0.079148374 0.58800006 4292731875
0.063284054 0.079249114 0.58874846 4292666080
0.064796001 0.079128839 0.58785492 4292666080
0.066224277 0.07891468 0.58626395 4292402908
0.068003029 0.079118416 0.5877775 4292073943
0.069813266 0.079348527 0.58948702 4291876564
0.071612328 0.079555832 0.59102708 4292271320
0.07304325 0.079354033 0.5895279 4292073941
0.074736752 0.079440065 0.59016705 4292008150
0.076357469 0.079446711 0.59021646 4291613392
0.078095324 0.079572462 0.59115064 4291416011
0.079576939 0.079437301 0.59014654 4291218632
0.081507839 0.079747111 0.59244812 4290560702
0.083439052 0.080045119 0.59466207 4290363577
0.057071164 0.08118511 0.59111887 4292731875
0.058376409 0.08075396 0.58797961 4292797668
0.060016219 0.080796339 0.58828819 4292666082
0.061590437 0.080750503 0.58795446 4292731875
0.063356429 0.080952033 0.58942181 4292337115
0.06498111 0.080967486 0.58953434 4292271322
0.066625349 0.081005968 0.58981454 4291481806
0.068377458 0.081170686 0.59101385 4291876562
0.070206463 0.081416972 0.59280711 4292205527
0.072012074 0.081625618 0.59432626 4291942355
0.073540628 0.081517935 0.59354222 4291876562
0.075142801 0.081494749 0.59337342 4291744976
0.076836757 0.081569985 0.59392118 4291416011
0.078675061 0.081792176 0.59553903 4291021253
0.080430888 0.081921339 0.59647948 4290560702
0.056990605 0.082685143 0.59028447 4292863461
0.058237307 0.082166031 0.58657855 4292600289
0.059753798 0.08204519 0.58571589 4292600289
0.061362982 0.082054608 0.58578312 4292402910
0.06302546 0.082132988 0.58634269 4292073943
0.064751267 0.082287975 0.58744913 4291416013
0.066371262 0.082304232 0.58756518 4291942357
0.068172015 0.082538575 0.58923811 4292008148
0.069841824 0.082607217 0.58972818 4292073941
0.071748979 0.08294715 0.59215492 4291744976
0.073257089 0.082820922 0.59125382 4291613390
0.074963182 0.082919158 0.59195507 4291284425
0.076600298 0.082938544 0.59209347 4291021253
0.078528985 0.083266288 0.59443325 4290758081
0.080276929 0.083392978 0.59533769 4290297784
0.0585973 0.084288359 0.59020448 4292271322
0.059964649 0.083942495 0.58778268 4292073943
0.061712936 0.084134035 0.58912385 4291152841
0.063476369 0.084335938 0.59053761 4291810771
0.065257788 0.084551133 0.59204447 4292073943
0.066840939 0.084505238 0.59172308 4291876564
0.06854368 0.084609129 0.59245056 4291876564
0.070280306 0.084749088 0.59343058 4291810769
0.072227381 0.085130773 0.59610325 4291416011
0.073863164 0.085136794 0.59614539 4291218632
0.075478256 0.085119233 0.59602243 4291087300
0.077240996 0.085265391 0.59704584 4290560956
0.060078457 0.085712664 0.58889824 4291284425
0.06178524 0.085845962 0.58981407 4291942357
0.063457169 0.085925281 0.59035903 4292008150
0.065221339 0.086122461 0.59171379 4291876562
0.066728376 0.085978776 0.59072661 4291810769
0.068410553 0.086062215 0.59129989 4291613390
0.070104159 0.086155862 0.59194326 4291416011
0.072153606 0.086672708 0.59549433 4291152839
0.073803566 0.086697459 0.59566438 4290692542
0.07561817 0.086910374 0.59712726 4290363576
0.062154714 0.087982312 0.59334117 4292008148
0.063792706 0.088002987 0.59348059 4291876562
0.065647922 0.088314876 0.59558392 4291613390
0.067312352 0.088361211 0.59589642 4291613390
0.068981737 0.088411696 0.59623688 4291284425
0.070769198 0.088607699 0.59755868 4291021253
0.062290408 0.089800932 0.5946365 4291547851
0.063559122 0.089298196 0.59130752 4291679183
0.065288588 0.089451693 0.5923239 4291416011
0.067011349 0.089588784 0.59323168 4291350218
0.06890326 0.08994019 0.59555858 4290955460
0.070711255 0.090168357 0.59706944 4290560702
0.065634213 0.091554016 0.59545952 4291152839
0.067419328 0.091766797 0.59684342 4290889667
