# .PCD v0.7 - Point Cloud Data file format
VERSION 0.7
FIELDS x y z rgba
SIZE 4 4 4 4
TYPE F F F U
COUNT 1 1 1 1
WIDTH 257
HEIGHT 1
VIEWPOINT 0 0 0 1 0 0 0
POINTS 257
DATA ascii
-0.0093637342 -0.012789075 0.60016567 4292337113
-0.0077032275 -0.012757874 0.59870148 4292402906
-0.0060697235 -0.012766619 0.59911186 4292337113
-0.0044430699 -0.012801571 0.60075206 4292402906
0.00048769222 -0.012826541 0.60192388 4292402906
0.0021295319 -0.012798676 0.60061622 4292468442
0.0037709065 -0.012793503 0.60037345 4292533465
0.0054148128 -0.012797452 0.60055876 4292600028
0.0070504714 -0.012784608 0.59995604 4292468442
0.0086740358 -0.012758825 0.59874606 4292468442
0.01028047 -0.012720036 0.5969258 4292468699
0.011933571 -0.012741705 0.59794271 4292468699
-0.017536733 -0.011124994 0.59895885 4292600287
-0.015885619 -0.011116073 0.59847856 4292731873
-0.014252889 -0.011119443 0.59866005 4292731871
-0.012603971 -0.011109422 0.59812051 4292600285
-0.010968896 -0.011110432 0.59817493 4292600285
-0.0093288394 -0.011105867 0.59792912 4292534492
-0.0076844958 -0.011093172 0.59724563 4292666078
-0.0060510407 -0.011093583 0.59726775 4292600285
-0.0044213589 -0.011103774 0.59781647 4292731871
-0.002785749 -0.011102306 0.59773737 4292666078
-0.0011516167 -0.011110914 0.59820086 4292534492
0.00048554927 -0.011130939 0.59927899 4292600285
0.0021274784 -0.011145019 0.60003704 4292600028
0.0037645362 -0.011132429 0.59935921 4292797407
0.0053958967 -0.011115743 0.59846079 4292665567
0.0070110075 -0.01108114 0.59659785 4292600287
0.0086363843 -0.011072767 0.59614706 4292666078
0.010258366 -0.011063392 0.59564233 4292731871
0.011922942 -0.011096229 0.5974102 4292666078
0.013579433 -0.01111453 0.59839553 4292600539
-0.019037634 -0.009418617 0.59466493 4292797666
-0.01742552 -0.0094264653 0.59516042 4292731873
-0.015810071 -0.0094339391 0.59563231 4292863459
-0.014162374 -0.0094216783 0.59485817 4292666080
-0.012523544 -0.0094128978 0.59430385 4292797666
-0.01089818 -0.0094131315 0.59431857 4292731873
-0.0092811063 -0.0094218599 0.59486967 4292731871
-0.0076478608 -0.0094143944 0.59439832 4292731871
-0.0060175038 -0.0094074123 0.59395748 4292731871
-0.0043937024 -0.0094093056 0.59407705 4292666078
-0.0027693068 -0.009411402 0.59420937 4292731871
-0.0011438887 -0.0094110407 0.59418654 4292731871
0.00048251753 -0.0094324313 0.59553713 4292731871
0.0021134843 -0.0094411904 0.59609014 4292666080
0.0037439498 -0.0094410554 0.59608161 4292731873
0.0053634802 -0.0094217928 0.59486544 4292666080
0.006968013 -0.0093912855 0.59293926 4292666080
0.0085854121 -0.0093863644 0.5926286 4292731873
0.01020946 -0.0093891202 0.59280258 4292797664
0.011831834 -0.0093897935 0.59284508 4292797664
0.013485575 -0.0094121965 0.59425956 4292863457
0.015110682 -0.009411945 0.59424365 4292797918
-0.01901434 -0.0077824625 0.59393728 4292666080
-0.017422412 -0.0077970978 0.59505421 4292929254
-0.015793607 -0.0077965446 0.59501201 4292731873
-0.014181891 -0.0078052701 0.59567791 4292731873
-0.012544633 -0.0078003788 0.59530461 4292731873
-0.010937743 -0.0078157289 0.59647608 4292731873
-0.0093056094 -0.0078152586 0.5964402 4292731873
-0.0076683946 -0.007809415 0.59599423 4292863459
-0.006029963 -0.0077988417 0.59518731 4292797666
-0.0044031776 -0.0078010811 0.59535819 4292731873
-0.0027728989 -0.0077961269 0.59498012 4292731873
-0.0011443509 -0.0077888747 0.59442663 4292666080
0.0004815326 -0.0077874968 0.59432149 4292666080
0.0021105502 -0.007799828 0.59526259 4292863459
0.0037399875 -0.0078022936 0.59545076 4292863459
0.0053643221 -0.007795848 0.59495884 4292731873
0.0069649816 -0.0077660051 0.59268129 4292731873
0.0085893543 -0.0077688796 0.59290069 4292797666
0.010214295 -0.0077712736 0.59308338 4292797664
0.011842411 -0.0077750958 0.59337509 4292863457
0.013478199 -0.0077824267 0.59393454 4292797664
0.015116297 -0.0077893706 0.59446448 4292337367
-0.017299926 -0.0061260401 0.5908708 4292995043
-0.015724521 -0.0061419909 0.59240931 4292797666
-0.014142551 -0.0061587477 0.59402555 4292797666
-0.012507031 -0.0061535086 0.59352022 4292863459
-0.010886091 -0.0061549502 0.59365928 4292863459
-0.0092564663 -0.0061511258 0.59329039 4292731873
-0.0076240283 -0.0061434084 0.59254605 4292995045
-0.0060045724 -0.0061448091 0.59268111 4292731873
-0.0043868241 -0.0061496389 0.59314698 4292797666
-0.0027653861 -0.0061519318 0.59336811 4292797666
-0.0011405969 -0.0061426894 0.59247667 4292731873
0.00047975892 -0.0061391196 0.59213239 4292666080
0.0020982954 -0.0061357375 0.59180617 4292731873
0.003720555 -0.006141447 0.59235686 4292797666
0.0053408584 -0.0061414428 0.59235644 4292797666
0.0069531458 -0.0061343689 0.59167415 4292929252
0.0085636936 -0.0061287214 0.59112942 4292731873
0.010181289 -0.0061291098 0.59116691 4292797666
0.011800586 -0.0061302762 0.59127939 4292929252
0.013413624 -0.0061283018 0.59108895 4292797666
0.015036441 -0.0061307396 0.59132409 4292468699
0.016752755 -0.0061671217 0.59483325 4291613643
-0.018953623 -0.0045187273 0.59204072 4292797664
-0.017353725 -0.0045238221 0.59270823 4292863457
-0.01575345 -0.0045298589 0.59349918 4292797666
-0.014173912 -0.0045439303 0.59534281 4292863459
-0.012540451 -0.0045421245 0.59510618 4292731873
-0.010919979 -0.0045451862 0.59550732 4292863459
-0.0092690503 -0.0045344215 0.59409696 4292863459
-0.007640698 -0.0045324727 0.59384161 4292797666
-0.006013446 -0.0045303004 0.593557 4292666080
-0.0043951352 -0.0045357482 0.59427077 4292731873
-0.0027689133 -0.0045346348 0.59412491 4292731875
-0.0011437954 -0.0045347358 0.59413815 4292666082
0.00048126702 -0.0045336336 0.59399372 4292863459
0.002104091 -0.0045294138 0.59344083 4292863459
0.0037245606 -0.0045260079 0.59299463 4292929252
0.0053383335 -0.0045189997 0.59207642 4292797666
0.006957422 -0.0045187068 0.59203804 4292995045
0.0085708955 -0.0045155659 0.59162652 4292929252
0.010180368 -0.0045116502 0.59111345 4292731873
0.011801395 -0.004513226 0.59131992 4292929252
0.013415661 -0.004512148 0.59117872 4292863459
0.015077495 -0.00452558 0.59293854 4292600285
-0.018856233 -0.0028843875 0.58899862 4292666078
-0.017297896 -0.002893216 0.59080142 4292863457
-0.015702326 -0.0028969951 0.59157312 4292731871
-0.014097907 -0.0028998221 0.59215039 4292863457
-0.012472322 -0.0028984642 0.59187311 4292731871
-0.010846365 -0.0028966023 0.59149289 4292797664
-0.0092229033 -0.0028948702 0.5911392 4292863457
-0.0075921207 -0.0028896153 0.59006613 4292731871
-0.0059778825 -0.00288952 0.5900467 4292666080
-0.0043623392 -0.00288849 0.58983636 4292731873
-0.0027528536 -0.0028926164 0.59067899 4292600287
-0.001138003 -0.0028948213 0.59112924 4292731873
0.00047990569 -0.0029006209 0.59231353 4292731873
0.0020966367 -0.0028958458 0.5913384 4292731871
0.0037122774 -0.0028943794 0.591039 4292797664
0.0053043608 -0.002881008 0.58830851 4292797664
0.0069218264 -0.0028844387 0.58900905 4292863457
0.0085196774 -0.0028799432 0.58809108 4292797666
0.010141125 -0.0028835854 0.58883482 4292731873
0.011751969 -0.0028836275 0.58884341 4292797666
0.013368598 -0.0028849076 0.58910483 4292797666
0.014999007 -0.0028885663 0.58985192 4292731871
0.016669262 -0.0028984426 0.5918687 4292337113
-0.018953804 -0.0012798549 0.59204638 4292534494
-0.017357327 -0.0012815518 0.59283131 4292534494
-0.015707614 -0.0012792625 0.59177232 4292600285
-0.014087674 -0.0012791506 0.59172058 4292600285
-0.012488582 -0.0012811485 0.59264475 4292600287
-0.010868085 -0.001281219 0.59267735 4292534494
-0.009241879 -0.001280523 0.59235543 4292666080
-0.0076042791 -0.0012776169 0.59101111 4292600287
-0.0059887231 -0.0012778452 0.59111673 4292666080
-0.0043727672 -0.0012781256 0.59124637 4292600287
-0.0027587758 -0.0012796461 0.59194976 4292534494
-0.0011408997 -0.0012811251 0.59263396 4292666080
0.00048038026 -0.0012816987 0.59289926 4292534494
0.0020996451 -0.0012801586 0.59218687 4292534494
0.0037149175 -0.0012785859 0.59145933 4292600285
0.005314562 -0.0012742204 0.58943993 4292600285
0.006926537 -0.0012741556 0.58940989 4292534492
0.0085253874 -0.0012721567 0.58848524 4292600285
0.010146646 -0.0012736053 0.58915538 4292600285
0.011783691 -0.001276367 0.59043288 4292600285
0.013421749 -0.0012785592 0.591447 4292600285
0.015055112 -0.0012798808 0.5920583 4292534492
0.016713323 -0.0012828527 0.59343314 4292139988
-0.018892743 0.00033850869 0.59013903 4292271322
-0.017282223 0.00033858162 0.59026617 4292337115
-0.015647447 0.00033814533 0.58950555 4292337115
-0.014018308 0.00033774466 0.58880705 4292468699
-0.012421516 0.00033812042 0.5894621 4292402906
-0.010804472 0.00033797484 0.5892083 4292337113
-0.009212005 0.00033868168 0.59044063 4292402906
-0.0075706323 0.00033750891 0.58839607 4292534492
-0.0059688496 0.00033794428 0.58915508 4292468699
-0.0043463162 0.00033709238 0.58766991 4292468699
-0.0027489217 0.0003383345 0.58983535 4292468699
-0.0011342918 0.00033797094 0.58920151 4292534494
0.00047899174 0.00033910896 0.59118551 4292402908
0.0020919486 0.0003384382 0.59001613 4292600287
0.0037102918 0.00033884359 0.59072286 4292402908
0.005307768 0.00033767545 0.58868641 4292337115
0.0069172075 0.00033763508 0.58861601 4292402908
0.0085120704 0.0003370328 0.58756602 4292468699
0.010128649 0.00033734506 0.58811039 4292468699
0.011757045 0.00033791139 0.58909774 4292402906
0.013371909 0.00033799917 0.58925074 4292205527
0.014990094 0.00033814297 0.58950144 4292402906
0.016645936 0.00033902575 0.59104043 4292074195
-0.018997196 0.0019635456 0.59340179 4292139736
-0.017351156 0.0019609604 0.59262055 4292073943
-0.015683182 0.0019551078 0.59085184 4292271322
-0.014056436 0.001953641 0.5904085 4292205529
-0.012456746 0.0019560414 0.59113395 4292139736
-0.010857963 0.0019593218 0.59212536 4292205529
-0.0092504174 0.0019618939 0.59290266 4292205527
-0.0076153981 0.0019584945 0.59187531 4292271320
-0.0060003363 0.0019597772 0.59226298 4292337113
-0.0043757204 0.0019577346 0.59164566 4292205527
-0.0027637831 0.001962296 0.59302413 4292337113
-0.0011391889 0.001958064 0.59174526 4292205529
0.00047926648 0.0019573341 0.5915246 4292271322
0.0020955564 0.0019557097 0.5910337 4292271322
0.0037140041 0.0019566368 0.5913139 4292271322
0.0053315787 0.001956681 0.59132725 4292205529
0.0069354768 0.0019528538 0.59017062 4292205529
0.0085542463 0.0019538684 0.59047729 4292205529
0.010158272 0.0019517281 0.58983046 4292271322
0.011791111 0.0019549516 0.59080464 4292139734
0.013404679 0.0019545881 0.59069479 4292073941
0.015054438 0.0019590124 0.59203184 4292139734
-0.018954979 0.0035787402 0.5920831 4292337115
-0.017318387 0.0035752235 0.5915013 4292337115
-0.015665865 0.003567355 0.59019947 4292337115
-0.014017514 0.003558737 0.58877367 4292205529
-0.012404931 0.0035581409 0.58867508 4292337115
-0.010810697 0.0035634157 0.58954775 4292337115
-0.0092178797 0.0035710887 0.59081721 4292337113
-0.0075919195 0.0035664546 0.59005052 4292337113
-0.0059743105 0.0035643002 0.58969408 4292337113
-0.0043582967 0.0035618565 0.58928978 4292468699
-0.0027580417 0.0035769821 0.59179223 4292402906
-0.0011388356 0.0035755888 0.59156173 4292337113
0.00047961966 0.0035779991 0.59196049 4292337115
0.0020932066 0.0035683913 0.59037095 4292271322
0.0037053472 0.0035657601 0.5899356 4292402908
0.0053142291 0.0035625407 0.58940297 4292402908
0.0069263121 0.0035624667 0.58939075 4292271322
0.0085516861 0.0035679659 0.59030056 4292139736
0.010155918 0.0035642984 0.58969378 4292008150
0.011762914 0.0035624732 0.58939183 4292205527
0.013362684 0.0035591635 0.58884424 4292073941
0.014998162 0.0035650535 0.58981872 4292008148
0.016686527 0.0035811493 0.59248167 4291745230
-0.019084735 0.0052338825 0.59613615 4291942355
-0.01743863 0.0052292473 0.59560817 4291810769
-0.015736138 0.0052050049 0.59284699 4291481804
-0.014101896 0.00520036 0.59231794 4291810769
-0.01249039 0.0052039823 0.59273052 4291744976
-0.010906254 0.0052217906 0.59475887 4291810769
-0.0092893336 0.005227393 0.595397 4291744976
-0.0076623429 0.0052285073 0.59552389 4291876562
-0.0060194554 0.0052164458 0.59415013 4292008148
-0.0043940265 0.0052161892 0.59412086 4291942355
-0.0027733534 0.0052245893 0.59507763 4291876562
-0.0011484473 0.0052375556 0.59655452 4292073941
0.00048202527 0.0052232891 0.59492958 4291876562
0.0021038258 0.0052095619 0.59336603 4291810769
0.003713131 0.0051903245 0.5911749 4292534492
0.0053412509 0.0052010803 0.59240001 4292468699
0.0069663324 0.0052045593 0.59279627 4292600287
-0.015834389 0.0068692761 0.5965485 4290297530
-0.014205712 0.0068707727 0.5966785 4290297530
-0.0044208905 0.0068831476 0.59775317 4290231737
-0.0027883463 0.0068893833 0.59829468 4290231737
0.00048600746 0.0069072298 0.59984452 4290100405
-0.014323663 0.0085735014 0.60163277 4290297784
