# .PCD v0.7 - Point Cloud Data file format
VERSION 0.7
FIELDS x y z rgba
SIZE 4 4 4 4
TYPE F F F U
COUNT 1 1 1 1
WIDTH 598
HEIGHT 1
VIEWPOINT 0 0 0 1 0 0 0
POINTS 598
DATA ascii
-0.020126283 -0.10898262 0.57918352 4287504943
-0.018521149 -0.10885999 0.5785318 4287701554
-0.016951814 -0.10894456 0.57898122 4287505205
-0.052066397 -0.1079262 0.58203012 4286392882
-0.045418881 -0.10726663 0.57847315 4287440439
-0.043865703 -0.10733797 0.57885784 4287703097
-0.042416193 -0.10767781 0.58069056 4287637818
-0.040903833 -0.10787836 0.58177209 4287505203
-0.03927616 -0.10777868 0.58123457 4287372590
-0.037597727 -0.10752544 0.57986885 4287766837
-0.035995394 -0.10747711 0.57960826 4287766067
-0.034361936 -0.10732711 0.57879931 4288028726
-0.032728802 -0.1071637 0.57791805 4287635251
-0.031095704 -0.10698381 0.57694793 4287373106
-0.029474284 -0.10682701 0.57610232 4287701044
-0.027960466 -0.10706452 0.57738316 4287568941
-0.026381712 -0.10706692 0.57739615 4287699755
-0.024841646 -0.10723666 0.5783115 4287765548
-0.023200432 -0.10696314 0.57683647 4287831341
-0.021597583 -0.10683949 0.57616961 4287897904
-0.020000592 -0.10672764 0.57556641 4287700527
-0.018487124 -0.10708043 0.57746899 4287634219
-0.016884748 -0.10693608 0.57669055 4287831598
-0.015326672 -0.10707147 0.57742065 4287307313
-0.053429168 -0.10587977 0.57954305 4286661153
-0.051801637 -0.10579342 0.57907045 4287836480
-0.050307222 -0.10598208 0.5801031 4287374130
-0.048701458 -0.1059408 0.57987714 4287570996
-0.046972264 -0.1056192 0.57811683 4287373617
-0.045305416 -0.10542028 0.57702804 4287898676
-0.043759443 -0.1054984 0.57745564 4287635761
-0.042335831 -0.10588841 0.57959038 4287569968
-0.04083208 -0.10610055 0.58075154 4287570222
-0.039237555 -0.10608442 0.58066326 4287635502
-0.037552483 -0.1058118 0.57917106 4287700525
-0.035941668 -0.10573363 0.57874316 4287962927
-0.03431559 -0.10560127 0.57801867 4287765548
-0.032738782 -0.10561507 0.57809424 4287962159
-0.03111507 -0.10547129 0.57730722 4287830573
-0.029530898 -0.10545332 0.57720888 4287568169
-0.027963733 -0.10549749 0.57745063 4287765546
-0.026369583 -0.10543904 0.57713068 4287568167
-0.024835128 -0.10562705 0.57815975 4287700266
-0.023262085 -0.10566534 0.57836938 4287831339
-0.021704024 -0.10578223 0.57900918 4287699753
-0.020106502 -0.10571007 0.57861423 4287568939
-0.018550668 -0.10586347 0.57945389 4287634219
-0.016942907 -0.10572154 0.578677 4287503916
-0.015374399 -0.10582051 0.57921869 4287374130
-0.013776441 -0.10571624 0.57864797 4287185228
-0.053188957 -0.10382562 0.5769375 4286397722
-0.051601946 -0.10380775 0.5768382 4287638072
-0.050069202 -0.10390137 0.57735842 4287636789
-0.048462059 -0.10384166 0.57702667 4287767090
-0.046834752 -0.10373329 0.57642442 4287503148
-0.045218997 -0.10364383 0.57592738 4287832111
-0.043651938 -0.10366356 0.57603699 4287766318
-0.042177867 -0.10391385 0.5774278 4287700525
-0.040717747 -0.10421935 0.5791254 4287701295
-0.039076034 -0.10406595 0.578273 4287832111
-0.037432615 -0.10389488 0.57732236 4287831598
-0.035808191 -0.10376378 0.57659388 4288027950
-0.034197263 -0.10366151 0.57602555 4287830571
-0.032627475 -0.10368008 0.57612878 4287830571
-0.031103261 -0.10385273 0.57708812 4287962159
-0.029613784 -0.104166 0.57882893 4287699753
-0.028040607 -0.10420364 0.57903808 4287962925
-0.026375543 -0.10388386 0.57726115 4287766059
-0.024831055 -0.10402851 0.57806492 4287700266
-0.023242526 -0.10399579 0.57788306 4287897132
-0.021688281 -0.10412286 0.5785892 4287699753
-0.02004393 -0.10380332 0.57681358 4287436581
-0.018508337 -0.10404053 0.57813168 4287897645
-0.016896375 -0.10385265 0.5770877 4287897902
-0.015332686 -0.10395334 0.57764721 4287569709
-0.013707913 -0.10361545 0.5757696 4287311674
-0.053407848 -0.10266827 0.57931179 4286594839
-0.051783107 -0.10258879 0.57886332 4287768887
-0.050151791 -0.10249086 0.57831079 4287569711
-0.04855318 -0.10245557 0.57811165 4287700014
-0.046987422 -0.10248956 0.5783034 4287831600
-0.045464966 -0.10262367 0.57906014 4287962157
-0.043908603 -0.10268815 0.57942396 4287897391
-0.042450968 -0.102997 0.58116668 4287897391
-0.040895253 -0.10308266 0.58165002 4287765805
-0.03927014 -0.10299324 0.58114547 4287700012
-0.037529144 -0.10257953 0.57881111 4287700012
-0.035877977 -0.10238573 0.57771754 4288028720
-0.034280397 -0.10233403 0.57742584 4287831341
-0.032808568 -0.10267088 0.57932651 4287698983
-0.031300303 -0.1029221 0.58074403 4287896362
-0.029778995 -0.10315499 0.58205813 4287831337
-0.02813614 -0.10296938 0.58101082 4287831337
-0.026475744 -0.10269351 0.57945418 4287962923
-0.024877325 -0.10263819 0.57914209 4287765544
-0.023299094 -0.10266433 0.57928956 4287699753
-0.021754688 -0.10285418 0.58036077 4287568167
-0.020132707 -0.10267829 0.57936835 4287831341
-0.018533189 -0.10259669 0.57890791 4287897391
-0.016915174 -0.1023879 0.57772976 4287765548
-0.015355356 -0.10252463 0.57850128 4287569709
-0.013797446 -0.10270698 0.57953024 4287182400
-0.05326191 -0.10080743 0.57772881 4286265104
-0.051604465 -0.10065693 0.57686633 4287636531
-0.049980283 -0.10056389 0.57633311 4287766065
-0.048390582 -0.10053641 0.57617563 4288028977
-0.046917766 -0.1007581 0.5774461 4287896880
-0.045348857 -0.10078169 0.57758129 4288028718
-0.043876756 -0.10102988 0.57900369 4287897132
-0.042346679 -0.10115817 0.57973891 4287765548
-0.04079584 -0.10124492 0.58023608 4287765548
-0.039069757 -0.10088617 0.57818007 4287699755
-0.037393697 -0.10063177 0.57672209 4287962927
-0.0357535 -0.10045573 0.57571322 4287698985
-0.03423069 -0.10060847 0.57658857 4287633960
-0.032694727 -0.10073546 0.57731634 4287765546
-0.031212049 -0.10104784 0.57910657 4287633960
-0.029638452 -0.10108352 0.57931113 4287765546
-0.028073931 -0.10115596 0.57972622 4287765544
-0.026451528 -0.10101601 0.57892418 4287765544
-0.024863143 -0.10099643 0.57881194 4287765544
-0.023232289 -0.10078993 0.57762855 4287830823
-0.021667745 -0.10086197 0.57804137 4287568167
-0.02009541 -0.10090623 0.57829505 4287831341
-0.018519023 -0.10093597 0.57846546 4287568169
-0.016892398 -0.10067186 0.57695186 4287699755
-0.015290034 -0.10051281 0.57604033 4287633962
-0.013730382 -0.10063024 0.57671332 4287180343
-0.053450085 -0.09957771 0.57976991 4285735189
-0.051797286 -0.099449217 0.57902181 4287702322
-0.050165687 -0.099354617 0.578471 4287831600
-0.04865884 -0.099508971 0.57936972 4287963186
-0.047098532 -0.0995607 0.57967091 4287896881
-0.045596186 -0.099742845 0.58073139 4287962927
-0.044052839 -0.099845201 0.58132732 4287897134
-0.042564627 -0.10008486 0.58272266 4287897134
-0.040848251 -0.099785812 0.58098155 4287831339
-0.039172746 -0.099566415 0.57970417 4287765546
-0.037480973 -0.099285424 0.57806814 4287501606
-0.035928309 -0.099364415 0.57852805 4287764776
-0.034355279 -0.099391744 0.57868719 4287764776
-0.032800592 -0.099477358 0.57918566 4287962409
-0.031180428 -0.099363007 0.57851988 4287765544
-0.029595971 -0.099356294 0.57848078 4287633958
-0.028036771 -0.099438407 0.57895887 4287633958
-0.02649051 -0.099578977 0.5797773 4287568167
-0.024916017 -0.099624582 0.58004284 4288226097
-0.023337843 -0.099660672 0.58025295 4287698983
-0.021763934 -0.099721566 0.58060747 4287896364
-0.020190962 -0.099796675 0.58104479 4287896366
-0.018574925 -0.099653564 0.58021158 4288027952
-0.016953103 -0.099449806 0.57902521 4287633962
-0.015346094 -0.099299885 0.57815236 4287504429
-0.013790713 -0.099487968 0.57924742 4287116605
-0.053217828 -0.097566031 0.57725066 4285677579
-0.051649395 -0.097585961 0.57736862 4287900725
-0.050118346 -0.097680025 0.57792515 4288028977
-0.048608888 -0.097823657 0.57877493 4287896880
-0.047072936 -0.097921848 0.5793559 4287896881
-0.045441911 -0.097822227 0.57876647 4287633962
-0.043805648 -0.097703725 0.57806534 4287897134
-0.042229977 -0.097716548 0.57814121 4287765548
-0.040597424 -0.097593643 0.57741404 4287831341
-0.038980648 -0.097500235 0.57686138 4287765548
-0.037387699 -0.097461052 0.57662958 4287764778
-0.035838179 -0.097536631 0.57707673 4287896364
-0.034296777 -0.097642273 0.57770175 4287962157
-0.032707635 -0.097615652 0.57754427 4287699751
-0.031105198 -0.097544633 0.57712406 4287699751
-0.029507674 -0.097482242 0.57675493 4287502372
-0.027948588 -0.097546965 0.57713789 4287502372
-0.026414728 -0.097712748 0.57811874 4287896616
-0.024863955 -0.097833104 0.57883084 4287764776
-0.02331236 -0.09796638 0.57961935 4287896364
-0.021724047 -0.097953536 0.57954335 4287764778
-0.020106763 -0.097797766 0.57862175 4287830573
-0.018476613 -0.097547442 0.57714069 4287698987
-0.016875997 -0.097420849 0.5763917 4287764780
-0.015302552 -0.097441167 0.57651192 4287634219
-0.013749607 -0.097611696 0.57752085 4287374129
-0.053532563 -0.096554711 0.58066458 4284947979
-0.051998299 -0.096655197 0.58126885 4287570738
-0.050389796 -0.096619681 0.58105528 4287831600
-0.048832256 -0.09668275 0.58143455 4287897906
-0.047198284 -0.096593633 0.58089864 4287963184
-0.04558938 -0.096551411 0.58064473 4287896366
-0.043909106 -0.096349522 0.57943058 4287897134
-0.04239855 -0.096518874 0.58044904 4287831341
-0.04073086 -0.096329786 0.57931191 4287699755
-0.039157689 -0.096357964 0.57948136 4287633962
-0.037449323 -0.096041806 0.57758003 4287633962
-0.03590396 -0.096134253 0.57813597 4287962157
-0.03434838 -0.096206583 0.57857096 4287633192
-0.032841831 -0.096429884 0.57991385 4287830571
-0.031243587 -0.096392944 0.57969171 4287764776
-0.029647278 -0.096358344 0.57948363 4287896362
-0.028003572 -0.096157089 0.5782733 4288093995
-0.026440578 -0.096225463 0.57868451 4287698983
-0.024887323 -0.096340254 0.57937485 4287698983
-0.023374176 -0.096636482 0.58115631 4287698985
-0.02179726 -0.096693054 0.58149654 4287764778
-0.020146521 -0.096405275 0.57976586 4287633192
-0.018505076 -0.096116588 0.57802975 4287830571
-0.0169087 -0.096029937 0.57750863 4287765548
-0.01535893 -0.096217386 0.57863593 4287502635
-0.013812349 -0.096470185 0.58015621 4287244341
-0.053440616 -0.094803281 0.57966721 4284684544
-0.051854193 -0.094801769 0.57965797 4287636781
-0.050281495 -0.09482605 0.57980645 4287765548
-0.048670776 -0.094777867 0.57951182 4287831600
-0.047121346 -0.09484981 0.5799517 4287896880
-0.045424696 -0.094620109 0.57854724 4287699755
-0.043840598 -0.094616726 0.57852656 4287699501
-0.042258784 -0.094618209 0.57853562 4288094259
-0.040703353 -0.094681181 0.57892066 4287699755
-0.03911281 -0.094664261 0.57881719 4287699755
-0.037453447 -0.094472326 0.57764363 4287831341
-0.035835307 -0.094372049 0.57703048 4287897134
-0.034286089 -0.094452396 0.57752174 4288027950
-0.032760896 -0.094609886 0.57848471 4287698985
-0.031196032 -0.094662987 0.57880938 4287567399
-0.029557725 -0.094486982 0.57773322 4287764778
-0.027925339 -0.094311096 0.57665777 4287698985
-0.026338799 -0.094278254 0.57645696 4287896364
-0.024762258 -0.094279297 0.57646334 4287764778
-0.02319048 -0.094299853 0.57658905 4287698985
-0.02164858 -0.094453759 0.57753009 4287698985
-0.020065365 -0.094437458 0.57743043 4287962157
-0.018487254 -0.094444439 0.5774731 4288027950
-0.016881848 -0.094300263 0.57659155 4287830571
-0.015327922 -0.09444356 0.57746774 4287830573
-0.013776586 -0.09463758 0.57865405 4287375929
-0.053435873 -0.093209408 0.57961577 4284751364
-0.051924866 -0.093343236 0.58044797 4287768365
-0.05032577 -0.093322165 0.58031696 4287831337
-0.048825856 -0.093489632 0.58135831 4287699753
-0.047214016 -0.093446843 0.58109224 4287765546
-0.045629375 -0.09345679 0.58115411 4288027950
-0.044106379 -0.093598261 0.58203381 4287699501
-0.042539392 -0.093653478 0.5823772 4287765294
-0.040885136 -0.093513399 0.58150613 4288225331
-0.039269365 -0.093453564 0.58113402 4287831341
-0.037632369 -0.093336031 0.58040315 4287831341
-0.035976596 -0.093159527 0.57930559 4288027948
-0.034400612 -0.093182877 0.57945079 4287962157
-0.032795638 -0.09312617 0.57909817 4288093743
-0.031263482 -0.093280979 0.58006084 4287501606
-0.029622428 -0.093110047 0.57899791 4287633192
-0.028023573 -0.093059935 0.5786863 4287830571
-0.026428077 -0.093015656 0.57841092 4287830571
-0.024825897 -0.09294071 0.57794487 4287567399
-0.023256822 -0.092987925 0.57823849 4287764776
-0.021691499 -0.093058132 0.57867509 4287633190
-0.020148668 -0.09324348 0.57982767 4287764776
-0.018572563 -0.093293361 0.58013785 4287699755
-0.016950872 -0.093102187 0.57894903 4287962927
-0.015345468 -0.092970274 0.57812876 4287633708
-0.013789937 -0.093144931 0.57921481 4287243571
-0.051591352 -0.091166154 0.57671976 4287902776
-0.050021831 -0.091180772 0.57681221 4287897902
-0.048551571 -0.091383144 0.57809246 4287700266
-0.047071218 -0.091579527 0.57933474 4287699753
-0.04545746 -0.091521002 0.57896453 4287765548
-0.04395299 -0.091686219 0.5800097 4287765805
-0.042298626 -0.09153942 0.57908106 4287699501
-0.040704243 -0.091516063 0.5789333 4287765294
-0.039124642 -0.091525391 0.57899231 4287896366
-0.03760004 -0.091669597 0.57990456 4287896364
-0.035924159 -0.091441445 0.57846123 4287896362
-0.034326334 -0.091400087 0.57819963 4288027948
-0.03268002 -0.09121941 0.57705665 4287896364
-0.031190181 -0.091479316 0.57870084 4287764778
-0.029551748 -0.091307893 0.57761639 4287830571
-0.027978076 -0.091328509 0.57774681 4287764778
-0.026341012 -0.091132268 0.57650536 4287962155
-0.02476888 -0.091149986 0.57661748 4287764776
-0.023176504 -0.09109056 0.57624155 4287633190
-0.021653535 -0.09131515 0.57766229 4287698983
-0.020094892 -0.09141282 0.57828015 4287830569
-0.018538173 -0.091536663 0.57906359 4287830569
-0.016910316 -0.091299593 0.57756388 4287698983
-0.015326794 -0.091277674 0.57742524 4287568169
-0.013778155 -0.091482334 0.57871991 4287307824
-0.051871981 -0.09007594 0.57985681 4287375408
-0.050211735 -0.089943156 0.57900202 4287307564
-0.04871577 -0.090105571 0.58004755 4288095283
-0.047190126 -0.09022218 0.58079821 4287633960
-0.045643739 -0.09030588 0.58133703 4287699753
-0.04406815 -0.090335764 0.58152938 4287830573
-0.042476527 -0.090333775 0.58151656 4288159538
-0.040789962 -0.09012188 0.58015251 4287896366
-0.039250478 -0.090230934 0.58085454 4287896366
-0.037662331 -0.090232596 0.58086526 4287830058
-0.036008999 -0.090071358 0.57982731 4287764776
-0.034393843 -0.089995161 0.57933676 4287764776
-0.032784164 -0.089926623 0.57889557 4287962155
-0.031321138 -0.09027382 0.58113062 4287896362
-0.029718079 -0.090232939 0.58086747 4287633190
-0.028105261 -0.090156153 0.58037317 4287633190
-0.026487682 -0.090053983 0.57971543 4288027948
-0.024878997 -0.089970961 0.57918102 4287896616
-0.02331146 -0.09003558 0.579597 4287568165
-0.021718847 -0.090005703 0.57940465 4287765544
-0.020136388 -0.090016522 0.57947427 4287897132
-0.018528836 -0.089907415 0.57877195 4287699753
-0.016947189 -0.08991538 0.57882321 4287830569
-0.015370068 -0.08995147 0.57905555 4287568167
-0.013852343 -0.090383403 0.58183604 4287833140
-0.051831793 -0.08842127 0.57940757 4287704377
-0.050102394 -0.088166967 0.57774121 4287570738
-0.048524253 -0.088170938 0.57776719 4287700272
-0.047042813 -0.088356808 0.57898515 4287831598
-0.045417629 -0.088276237 0.57845724 4287831087
-0.0437948 -0.088194586 0.57792217 4288093743
-0.042224105 -0.088215753 0.57806087 4287698985
-0.040674578 -0.088284507 0.57851142 4287896366
-0.039160419 -0.088438697 0.57952178 4287830571
-0.037555583 -0.088392466 0.57921886 4287830571
-0.03592664 -0.088282943 0.57850116 4287830569
-0.034296144 -0.088159323 0.57769108 4287698983
-0.032714441 -0.088155255 0.57766443 4287830569
-0.031232975 -0.088434584 0.57949483 4287698983
-0.029647043 -0.088432178 0.57947904 4287633190
-0.028023563 -0.088311173 0.57868612 4287633190
-0.02636731 -0.088066213 0.57708097 4287830569
-0.024788432 -0.088064946 0.57707268 4287699237
-0.02323425 -0.088157222 0.57767731 4287568165
-0.021686841 -0.08829052 0.57855082 4287765544
-0.020079188 -0.088180251 0.57782823 4287502374
-0.018491073 -0.088144258 0.57759237 4287568165
-0.016901046 -0.088091582 0.5772472 4287634471
-0.015340449 -0.088197261 0.57793969 4287372328
-0.013801612 -0.088466682 0.57970518 4287110700
-0.012279344 -0.088926055 0.58271533 4287185991
-0.053531423 -0.087022908 0.58065218 4284095232
-0.051979024 -0.087083034 0.58105338 4287638071
-0.050282303 -0.086897552 0.57981575 4287766320
-0.048761137 -0.087013252 0.58058774 4287502635
-0.047165718 -0.086999774 0.5804978 4287831339
-0.045569003 -0.086982891 0.58038515 4287831341
-0.043892842 -0.086807661 0.57921594 4288027950
-0.042457547 -0.087113515 0.58125675 4288027950
-0.040890381 -0.087162077 0.58158076 4287896364
-0.039373565 -0.087326229 0.58267605 4287698985
-0.037759025 -0.087278351 0.58235657 4287764776
-0.036173999 -0.087297477 0.58248419 4288027948
-0.034525443 -0.087157987 0.58155346 4287830569
-0.032879718 -0.087012522 0.58058286 4287962155
-0.031314217 -0.08707536 0.58100218 4287896362
-0.029737754 -0.087112814 0.58125204 4287633192
-0.028089611 -0.086932659 0.58004999 4287501606
-0.026473261 -0.08683522 0.57939982 4287567399
-0.024872795 -0.086780787 0.57903665 4287698983
-0.023343004 -0.08698231 0.58038127 4287567397
-0.021756833 -0.086987823 0.58041805 4287830569
-0.020152718 -0.086916804 0.57994419 4287830569
-0.018542975 -0.086807311 0.57921362 4287831339
-0.016968189 -0.086856298 0.57954049 4287633958
-0.015378724 -0.086832494 0.57938164 4287634730
-0.013836427 -0.087100141 0.58116752 4287044907
-0.051792722 -0.085187234 0.57897079 4286259491
-0.050029591 -0.084882788 0.57690167 4287438123
-0.048500765 -0.084968992 0.57748753 4287502636
-0.046908315 -0.084945783 0.57732981 4287633962
-0.045338456 -0.084963299 0.57744884 4287830571
-0.043691013 -0.084831432 0.57655263 4287698985
-0.042244505 -0.085094437 0.57834011 4287962157
-0.040762041 -0.085302673 0.57975537 4287962157
-0.039254613 -0.085473396 0.58091569 4287633192
-0.03769001 -0.085528784 0.58129215 4287698983
-0.03611283 -0.085559256 0.58149922 4287896362
-0.034480773 -0.08545652 0.58080101 4287896362
-0.0327392 -0.085059345 0.57810163 4288093741
-0.031167507 -0.085085616 0.57828015 4288027948
-0.029573381 -0.085050166 0.57803923 4287962157
-0.028044917 -0.085210226 0.57912707 4287830573
-0.026390413 -0.084983565 0.57758659 4287633192
-0.024852034 -0.085125804 0.57855332 4287633192
-0.023267787 -0.085119598 0.57851112 4287435811
-0.021734217 -0.085311398 0.57981467 4287830569
-0.020099286 -0.085104212 0.57840657 4287896616
-0.018526336 -0.085146487 0.57869387 4287633958
-0.016927382 -0.085065991 0.57814676 4287831337
-0.015331465 -0.084985718 0.57760119 4287568165
-0.013764043 -0.085063107 0.57812721 4287306796
-0.012223229 -0.085346378 0.58005244 4287183940
-0.053631216 -0.084002644 0.58173466 4284625160
-0.052115969 -0.084125325 0.58258426 4287508018
-0.050258487 -0.083685897 0.57954115 4287700523
-0.048705228 -0.083740897 0.57992202 4287897645
-0.04702786 -0.083579034 0.5788011 4287896364
-0.045544751 -0.083763167 0.58007628 4288027437
-0.043908309 -0.083668418 0.57942009 4287830571
-0.042391166 -0.083802402 0.58034796 4287896364
-0.040784106 -0.083762147 0.58006918 4287962157
-0.039284553 -0.083948366 0.58135879 4287830571
-0.037766129 -0.084108263 0.58246613 4287370018
-0.036263566 -0.084319137 0.58392644 4287699753
-0.034608778 -0.08417917 0.58295715 4287699753
-0.032890487 -0.08386378 0.580773 4287568167
-0.031252049 -0.08373031 0.57984871 4287765546
-0.029646875 -0.083676457 0.57947576 4287831341
-0.028132623 -0.083887637 0.58093822 4287830571
-0.026502853 -0.08375901 0.58004749 4287567399
-0.024942549 -0.083847538 0.58066052 4287764778
-0.023306224 -0.083675161 0.57946682 4287830569
-0.021742988 -0.083759189 0.58004868 4287633190
-0.020099055 -0.083521113 0.57839996 4287830823
-0.018540613 -0.083627947 0.57913983 4287699237
-0.016988946 -0.083788171 0.58024943 4287502885
-0.015406378 -0.083813302 0.58042347 4287699753
-0.01384498 -0.083972618 0.58152676 4287110187
-0.012270141 -0.084081195 0.58227867 4287381319
-0.05347636 -0.082173429 0.58005494 4285875225
-0.051950261 -0.082269326 0.58073187 4287376430
-0.050122939 -0.081879213 0.57797807 4287569707
-0.048519623 -0.081841528 0.57771206 4287897645
-0.046921726 -0.081810758 0.57749486 4287962155
-0.045420256 -0.081951827 0.57849067 4287961898
-0.043848094 -0.081970923 0.57862544 4287962157
-0.042200562 -0.081845276 0.57773852 4287830571
-0.040576469 -0.081757084 0.57711601 4287830571
-0.039043635 -0.081853069 0.57779354 4287962157
-0.037517961 -0.081972785 0.57863861 4287568167
-0.035991896 -0.082102172 0.57955194 4287699753
-0.034419049 -0.082131833 0.57976133 4287633960
-0.032770261 -0.08197441 0.57865006 4287633960
-0.031163149 -0.081910543 0.57819927 4287765546
-0.029540144 -0.081795841 0.5773896 4287765548
-0.028090395 -0.082175024 0.5800662 4287831341
-0.026460532 -0.082041159 0.57912123 4287699755
-0.024885368 -0.082070634 0.57932931 4287633192
-0.023199817 -0.081715323 0.57682121 4287698983
-0.02164364 -0.081797078 0.5773983 4287633190
-0.020030633 -0.081660032 0.57643092 4287830569
-0.018465396 -0.08171095 0.57679033 4287830823
-0.016924296 -0.081888169 0.57804132 4287436581
-0.015346251 -0.081904739 0.57815826 4287502887
-0.013801222 -0.082121558 0.57968879 4287439665
-0.012225554 -0.082188703 0.58016276 4287118147
-0.053574536 -0.080734722 0.58111984 4285742610
-0.052045789 -0.080829181 0.58179975 4287440942
-0.050289307 -0.080564767 0.57989651 4287634221
-0.048761107 -0.080660753 0.58058739 4287700012
-0.047174234 -0.080662869 0.58060265 4287700012
-0.045658849 -0.080791637 0.5815295 4287962155
-0.0439943 -0.08065623 0.58055484 4287831341
-0.042352762 -0.080554441 0.57982218 4287633962
-0.040682763 -0.080388509 0.57862782 4287831341
-0.039141204 -0.080473199 0.5792374 4287765546
-0.037589554 -0.080543414 0.57974279 4287765546
-0.036087491 -0.080730751 0.58109123 4287699753
-0.034533732 -0.080814369 0.58169311 4287502374
-0.032942086 -0.080813125 0.58168417 4287568169
-0.031311307 -0.080710873 0.58094817 4287699755
-0.029656613 -0.080532752 0.57966608 4287633962
-0.028140105 -0.080730952 0.58109272 4287831341
-0.026564015 -0.080771714 0.58138609 4287699753
-0.024983933 -0.080804758 0.58162391 4287633192
-0.023287816 -0.080441482 0.57900912 4287764778
-0.021671014 -0.080319151 0.57812858 4287567397
-0.020072576 -0.080250978 0.57763791 4287830569
-0.018476067 -0.080179535 0.57712364 4287633960
-0.016935298 -0.080359235 0.57841712 4287896362
-0.01536274 -0.080409579 0.57877946 4287502887
-0.013859718 -0.080877259 0.58214581 4287242286
-0.051850706 -0.078940742 0.57961899 4286849316
-0.050157115 -0.078770936 0.57837218 4287701554
-0.048563212 -0.07875172 0.5782311 4287568939
-0.047033373 -0.078838594 0.57886899 4287568680
-0.045483332 -0.078896485 0.57929403 4287765546
-0.043937989 -0.078966998 0.57981175 4287897134
-0.042338077 -0.07894104 0.57962114 4287699755
-0.040690526 -0.078820787 0.57873821 4287699755
-0.039044071 -0.078693002 0.57779998 4287897134
-0.037443623 -0.078651078 0.57749212 4287765548
-0.035901193 -0.078732692 0.57809138 4287633962
-0.034367066 -0.078840882 0.57888573 4287765548
-0.032764468 -0.078794852 0.57854778 4287633962
-0.031191457 -0.078818917 0.5787245 4287765548
-0.029572258 -0.078722604 0.57801729 4287568169
-0.028008992 -0.078772716 0.57838523 4287502376
-0.026456136 -0.078859851 0.57902503 4287699755
-0.024888022 -0.07890971 0.57939112 4287633192
-0.023235828 -0.07868164 0.57771653 4287764778
-0.021603623 -0.07849291 0.57633078 4287896364
-0.020031907 -0.078511536 0.57646757 4287698985
-0.018432057 -0.078413665 0.57574892 4287962159
-0.016854743 -0.07840234 0.57566577 4287764265
-0.01527551 -0.078378826 0.57549316 4287567399
-0.013762591 -0.078729264 0.57806623 4287109417
-0.012225021 -0.079011351 0.58013743 4287512389
-0.053706292 -0.077746317 0.58254898 4287257643
-0.052138727 -0.077784978 0.58283865 4286587427
-0.050425932 -0.07760258 0.58147198 4287437351
-0.048788402 -0.077527896 0.58091235 4287831598
-0.047211781 -0.077548236 0.58106476 4287831337
-0.045626502 -0.077555276 0.58111751 4287764778
-0.044039778 -0.077560268 0.58115494 4287962925
-0.04252214 -0.077691875 0.58214104 4287831339
-0.040840585 -0.077522576 0.58087248 4287568426
-0.039256331 -0.07753174 0.58094114 4287897134
-0.037558824 -0.077308558 0.57926887 4287897134
-0.036034681 -0.07743828 0.58024085 4287633962
-0.034432191 -0.077403829 0.5799827 4287568169
-0.032822791 -0.077349775 0.57957768 4287897132
-0.031217581 -0.077300593 0.57920921 4287765546
-0.029657576 -0.077364087 0.57968491 4287633960
-0.028068485 -0.077354588 0.57961375 4287633960
-0.026530461 -0.077493109 0.5806517 4287765544
-0.024914298 -0.077406511 0.58000284 4287830569
-0.023316609 -0.077369437 0.57972503 4287764778
-0.021647373 -0.077072211 0.5774979 4287633192
-0.02011572 -0.077256598 0.57887954 4287830573
-0.018527798 -0.077237912 0.57873952 4287698987
-0.016964208 -0.077326663 0.57940453 4287764778
-0.015343211 -0.077145047 0.5780437 4287633192
-0.013805372 -0.077387869 0.57986313 4287305256
-0.012270182 -0.077710494 0.58228058 4287049785
-0.053610552 -0.076017082 0.58151048 4287915313
-0.051995028 -0.075980715 0.58123231 4285996065
-0.050331164 -0.075869195 0.58037919 4287634732
-0.048650045 -0.075723544 0.579265 4287831339
-0.047050528 -0.075699374 0.5790801 4287700264
-0.045360178 -0.075522289 0.57772547 4287699753
-0.043880288 -0.075695477 0.5790503 4287568167
-0.0423376 -0.075769246 0.57961464 4287897391
-0.040717378 -0.075704612 0.57912016 4287634219
-0.039100967 -0.075642094 0.57864195 4287633708
-0.037465405 -0.0755357 0.57782805 4288028466
-0.035946894 -0.075666331 0.57882732 4287502122
-0.034353916 -0.075645007 0.57866424 4287633962
-0.032738358 -0.075569518 0.57808673 4287699753
-0.031138273 -0.075523898 0.57773775 4287897132
-0.029581066 -0.075582944 0.57818943 4287700264
-0.028004389 -0.075596109 0.57829016 4287700264
-0.026439097 -0.07564342 0.57865208 4287830823
-0.024828741 -0.075559631 0.5780111 4287962155
-0.023250375 -0.0755684 0.57807821 4287764776
-0.02159417 -0.075307004 0.57607859 4287501606
-0.020057088 -0.075452588 0.57719225 4287698987
-0.01851034 -0.075583562 0.5781942 4287567401
-0.01696776 -0.075757638 0.57952583 4287698472
-0.015359906 -0.075646117 0.57867271 4287698985
-0.013782225 -0.075674631 0.57889086 4287438125
-0.012249443 -0.07598909 0.58129638 4287114295
-0.053856827 -0.074768342 0.58418185 4287983159
-0.052108794 -0.074553601 0.58250403 4285602849
-0.05035172 -0.074311987 0.58061624 4287371562
-0.048775446 -0.074330144 0.58075809 4287634219
-0.047212277 -0.074370168 0.58107084 4287568426
-0.045549702 -0.074250951 0.58013934 4287568939
-0.044000525 -0.074314639 0.58063698 4287766059
-0.042416833 -0.074322619 0.58069932 4287963184
-0.040811393 -0.074291646 0.58045733 4287568426
-0.039211843 -0.074269302 0.58028275 4287502122
-0.037586853 -0.074194863 0.57970113 4287567915
-0.036065742 -0.074327961 0.58074105 4287700015
-0.034513094 -0.074405313 0.58134544 4287634221
-0.032896776 -0.074346259 0.58088404 4287634219
-0.03125966 -0.074231826 0.57998991 4287634473
-0.029661734 -0.074203186 0.57976615 4287831339
-0.028130127 -0.074346595 0.58088666 4287897130
-0.026600594 -0.074512981 0.58218664 4287634471
-0.024942089 -0.074316278 0.58064979 4287634984
-0.02334075 -0.074274741 0.58032525 4287437351
-0.021681936 -0.074030891 0.57841998 4287896364
-0.020177074 -0.07431569 0.58064514 4287698985
-0.018619422 -0.074438088 0.5816015 4287764778
-0.017069396 -0.074616715 0.58299714 4287502376
-0.015427344 -0.074388407 0.58121336 4287633962
-0.013867937 -0.07455194 0.58249104 4287633708
-0.053867359 -0.073184706 0.58429605 4282915328
-0.052132472 -0.072993405 0.58276874 4285537824
-0.050212387 -0.072522558 0.57900953 4287306796
-0.048608981 -0.072493315 0.57877606 4287700014
-0.047038391 -0.072512686 0.57893074 4287438125
-0.045392677 -0.072413571 0.57813942 4287765805
-0.043833029 -0.07244955 0.57842666 4287634734
-0.04223115 -0.072415814 0.57815731 4287634732
-0.040703181 -0.072511122 0.57891822 4287634732
-0.039094768 -0.072465025 0.57855022 4287700527
-0.037572533 -0.072581522 0.57948029 4287503148
-0.036048301 -0.072704256 0.58046019 4287240491
-0.034529358 -0.072849452 0.58161944 4287372589
-0.032911364 -0.072789609 0.58114165 4287307050
-0.031298824 -0.072736375 0.58071661 4287568937
-0.029648328 -0.072584502 0.57950413 4287831852
-0.028086176 -0.072643995 0.57997906 4287766059
-0.026540477 -0.072755702 0.58087093 4287437092
-0.024956074 -0.072768778 0.58097535 4287766570
-0.023358038 -0.072741188 0.58075505 4287569707
-0.021720266 -0.072576784 0.5794425 4287174949
-0.020125667 -0.072542123 0.57916576 4287306537
-0.018582027 -0.072700903 0.58043343 4287503916
-0.017002834 -0.072737269 0.58072376 4287372330
-0.015429852 -0.072810426 0.58130783 4287174183
-0.013871598 -0.072977886 0.58264482 4286847273
