# .PCD v0.7 - Point Cloud Data file format
VERSION 0.7
FIELDS x y z rgba
SIZE 4 4 4 4
TYPE F F F U
COUNT 1 1 1 1
WIDTH 582
HEIGHT 1
VIEWPOINT 0 0 0 1 0 0 0
POINTS 582
DATA ascii
0.035564665 0.02107079 0.58314145 4287174700
0.03704913 0.021008058 0.58140528 4287174181
0.03868885 0.021034898 0.58214813 4287372332
0.030862126 0.022726834 0.58470941 4287238950
0.03232678 0.022632504 0.58228254 4287172643
0.033950463 0.022653142 0.5828135 4287501604
0.035427444 0.022578437 0.58089149 4287567397
0.037051022 0.022599559 0.58143497 4287370272
0.038655121 0.022607556 0.58164066 4287107618
0.040427089 0.022709211 0.58425605 4286716716
0.021191124 0.024240807 0.58265632 4287373106
0.022716286 0.024167808 0.58090174 4287175727
0.024226427 0.024089426 0.5790177 4287240746
0.025789194 0.024069775 0.57854539 4287371562
0.02739713 0.024092117 0.57908243 4287173411
0.02898214 0.024092961 0.57910269 4287304227
0.030615943 0.024132174 0.58004522 4287435811
0.032094669 0.024051312 0.57810163 4287370020
0.03364573 0.024029708 0.5775823 4287304225
0.035183236 0.024000792 0.57688731 4287370018
0.036814954 0.024035869 0.57773042 4287567397
0.038499083 0.02410087 0.57929277 4287304227
0.040124658 0.02412552 0.5798853 4287370796
0.041824143 0.02419105 0.58146036 4286195253
0.014868287 0.025925692 0.58471125 4287436843
0.016429335 0.025865322 0.5833497 4287107364
0.01798021 0.025801042 0.5819 4287304229
0.019567261 0.025794907 0.5817616 4287304227
0.021111006 0.025736904 0.58045346 4287304997
0.022652891 0.025684901 0.57928061 4287239461
0.024213895 0.025659963 0.57871819 4287435811
0.025777126 0.025640298 0.57827467 4287436065
0.027418183 0.025695845 0.57952744 4287304993
0.029006232 0.025698356 0.57958406 4287370788
0.030716553 0.02580332 0.58195138 4287238432
0.032207962 0.025723109 0.58014232 4287304225
0.033775494 0.02570837 0.5798099 4287435811
0.035285406 0.025653062 0.57856256 4287633190
0.03698964 0.025737712 0.58047169 4287304993
0.03863072 0.025773264 0.5812735 4287370788
0.040313616 0.025832796 0.58261615 4287371050
0.041937843 0.025851637 0.58304107 4286520620
0.0084214425 0.027364982 0.58131021 4287174698
0.0099773426 0.027271528 0.57932496 4287305256
0.011511059 0.027151367 0.57677239 4287304997
0.013082947 0.027139354 0.57651722 4287304997
0.014645096 0.027111899 0.57593399 4287304995
0.016240336 0.027145088 0.576639 4287173411
0.01781586 0.027142361 0.57658106 4287501606
0.019439757 0.027207779 0.57797074 4287370020
0.020971775 0.02714444 0.57662523 4287501606
0.022553071 0.027149279 0.57672805 4287370020
0.024065752 0.027076287 0.57517749 4287501606
0.025664574 0.027103223 0.5757497 4287370020
0.027233304 0.027097106 0.57561976 4287501604
0.028878504 0.027163584 0.57703191 4287370018
0.030497106 0.027199449 0.57779378 4287172639
0.032067541 0.027190939 0.577613 4287370018
0.033565387 0.027124569 0.57620311 4287304225
0.035094216 0.027088063 0.57542765 4287370018
0.036683403 0.027099283 0.57566601 4287567397
0.038350925 0.027165068 0.57706344 4287370018
0.039985221 0.027203042 0.57787013 4287501608
0.041611191 0.027232684 0.57849979 4286716716
0.043451536 0.027395312 0.58195448 4287194469
0.0052382667 0.028938524 0.58097798 4287109160
0.0068044188 0.028840913 0.57901829 4287305254
0.0083933268 0.028858401 0.57936943 4287304997
0.0099489549 0.028774085 0.57767665 4287172639
0.011515631 0.028740453 0.57700145 4287304225
0.013085314 0.02872153 0.57662153 4287501604
0.014693874 0.028782832 0.57785225 4287304225
0.016273202 0.028780524 0.57780594 4287238432
0.017877115 0.028818259 0.57856351 4287238432
0.019492595 0.028866982 0.57954168 4287435811
0.021062689 0.028846223 0.57912493 4287370018
0.022672435 0.028878873 0.5797804 4287501604
0.024245463 0.028863544 0.57947266 4287370018
0.025823206 0.028855361 0.57930839 4287238432
0.02732507 0.028768241 0.57755935 4287435811
0.028879102 0.028742563 0.57704383 4287304225
0.030514574 0.028796403 0.5781247 4287304225
0.032165587 0.028858883 0.57937908 4287370018
0.033765297 0.028871622 0.57963485 4287501858
0.035289183 0.028821297 0.57862449 4287436065
0.036905888 0.028847842 0.57915741 4287567651
0.038546387 0.028890036 0.58000451 4287370272
0.040241774 0.028968403 0.58157784 4287303714
0.041898254 0.029013872 0.58249068 4287239721
0.0051951557 0.030276464 0.57619655 4286977832
0.0067469873 0.030167939 0.57413119 4287239461
0.0083402423 0.030250644 0.57570517 4287173409
0.009915296 0.030251544 0.57572228 4287435811
0.011477686 0.030218855 0.57510018 4287501347
0.01303343 0.030178661 0.57433522 4287435554
0.014604943 0.030179696 0.57435495 4287304225
0.01622716 0.030275127 0.5761711 4287304225
0.017804492 0.030277338 0.57621318 4287304225
0.019401053 0.030309225 0.57682002 4287304225
0.020894296 0.030187054 0.57449496 4286909467
0.022539994 0.030286819 0.5763936 4287501604
0.024138195 0.030313898 0.57690895 4287370018
0.025761057 0.030366719 0.57791418 4287238432
0.027212745 0.030223321 0.57518518 4287501604
0.028760705 0.030196678 0.57467812 4287567140
0.030318713 0.030182797 0.57441396 4287303968
0.031968735 0.030257376 0.57583326 4287435552
0.033551183 0.030263994 0.57595921 4287370272
0.035147235 0.030281741 0.57629699 4287436065
0.036713682 0.030273555 0.57614118 4287238686
0.038398277 0.030359454 0.57777596 4287501858
0.039942794 0.030332185 0.57725698 4287237921
0.041587222 0.030379979 0.57816654 4287239463
0.043188054 0.030393589 0.57842559 4285868341
0.0052495142 0.032185849 0.58222544 4286978602
0.0067918468 0.03194942 0.57794851 4287240746
0.0084027452 0.032063909 0.58001959 4287108129
0.009982707 0.032042727 0.57963639 4287370018
0.0115771 0.032067325 0.5800814 4287304225
0.013140807 0.032011244 0.57906693 4287304225
0.014716054 0.031992316 0.5787245 4287436065
0.016327612 0.032048333 0.57973784 4287436065
0.017917754 0.032056119 0.57987869 4287370272
0.019497208 0.032045074 0.57967889 4287436065
0.021021755 0.031952236 0.57799947 4287238432
0.022649877 0.032018796 0.57920355 4287304225
0.024294788 0.032098841 0.58065152 4287172639
0.025859112 0.032069121 0.58011389 4287435811
0.027363298 0.031972572 0.57836735 4287370018
0.028899243 0.031921655 0.57744628 4287172639
0.030539012 0.031984754 0.57858771 4287238173
0.032121461 0.031984564 0.57858425 4287303966
0.033710591 0.031990726 0.57869577 4287436065
0.03527806 0.031976704 0.5784421 4287436065
0.036916599 0.032025538 0.5793255 4287501604
0.038581096 0.032091945 0.58052677 4287238432
0.040121093 0.032053635 0.57983375 4287304229
0.041792098 0.032118928 0.58101487 4287239464
0.043455746 0.032173987 0.58201087 4286257709
0.0052494011 0.033777718 0.58221292 4286911526
0.0067827753 0.033485528 0.57717657 4287173670
0.008345075 0.033419512 0.57603872 4287436581
0.0099277496 0.033443108 0.5764454 4287633444
0.011523465 0.033498138 0.57739395 4287370272
0.013117217 0.033534888 0.57802743 4287304479
0.01466197 0.033451937 0.57659757 4287567651
0.016262779 0.033500571 0.57743585 4287436065
0.017846502 0.033508513 0.57757276 4287436065
0.019438641 0.03352968 0.5779376 4287172893
0.020959483 0.033433933 0.57628727 4287501858
0.02254658 0.033449873 0.57656205 4287238686
0.024147825 0.033483353 0.57713908 4287304479
0.025703777 0.033453766 0.57662916 4287304479
0.027262991 0.033431608 0.57624722 4287370018
0.028874507 0.033472501 0.57695204 4287172639
0.030473977 0.03349591 0.57735556 4287370272
0.031971402 0.033410382 0.5758813 4287370018
0.033477455 0.033341475 0.57469362 4287370272
0.035047788 0.033339899 0.57466644 4287107100
0.036686584 0.033400785 0.5757159 4287435811
0.038300361 0.033434823 0.57630259 4287304227
0.039837576 0.03340197 0.57573634 4287435813
0.041443292 0.033426873 0.57616556 4287303716
0.043082699 0.033476129 0.57701457 4286978348
0.0068114661 0.035212629 0.57961798 4287435813
0.0083647873 0.035077851 0.57739943 4287369761
0.0099323634 0.035036165 0.57671326 4287239202
0.011546611 0.035147976 0.57855374 4287501858
0.013178033 0.035278808 0.58070731 4287501347
0.014761765 0.035267558 0.58052212 4287238686
0.016300797 0.035162069 0.57878572 4287370272
0.017895756 0.035185218 0.57916677 4287436065
0.019493582 0.035209779 0.57957107 4287107100
0.021128401 0.035292443 0.58093172 4287435811
0.022694839 0.035257302 0.58035332 4287370018
0.024326794 0.035321891 0.58141649 4287304225
0.025826771 0.035198681 0.57938838 4287304225
0.027427293 0.035218827 0.57972002 4287501604
0.029003443 0.035207182 0.57952833 4287304225
0.030684063 0.035316993 0.58133584 4287304479
0.032149032 0.035179999 0.57908082 4287435811
0.033635668 0.035078466 0.57740957 4287304225
0.035140362 0.035004031 0.57618433 4287370018
0.03683478 0.035116859 0.57804155 4287304227
0.038460188 0.035157319 0.57870752 4287304227
0.040053837 0.035166688 0.57886177 4287304227
0.041627258 0.035158265 0.57872313 4287370022
0.043311443 0.035240587 0.58007818 4286978350
0.0052683023 0.037095923 0.58430922 0
0.0067918827 0.036692295 0.57795155 4286976804
0.0083144568 0.036436677 0.57392526 4287304225
0.0098716617 0.036389913 0.57318866 4287304995
0.011463112 0.036464911 0.57436997 4287370272
0.013101914 0.036654297 0.57735306 4287107100
0.014684683 0.036663044 0.57749081 4287370272
0.01622962 0.036584806 0.57625848 4287238686
0.01780563 0.036584269 0.57625002 4287304479
0.019379005 0.036578842 0.57616454 4287501858
0.020959437 0.036586557 0.57628602 4287567651
0.022504425 0.036535639 0.57548404 4287304225
0.024120716 0.03659958 0.57649118 4287304225
0.025687378 0.036584985 0.57626128 4287304225
0.027305065 0.036640551 0.57713652 4287370018
0.028868189 0.036620826 0.5768258 4287370018
0.030497415 0.036682647 0.57779962 4287435813
0.032024179 0.036621213 0.57683194 4287304227
0.033543464 0.036557395 0.5758267 4287369507
0.035098784 0.036536817 0.57550257 4287369507
0.036679301 0.036543105 0.57560164 4287041055
0.03830339 0.036590502 0.57634819 4287633192
0.039808843 0.036525294 0.57532108 4287304227
0.041384634 0.036527134 0.57535005 4287172641
0.042968273 0.036535513 0.57548201 4287172390
0.044935875 0.036858238 0.58056539 4286789958
0.0068225651 0.038446102 0.58056247 4286976291
0.0083685052 0.038253635 0.57765609 4287238432
0.0099429293 0.038231827 0.57732677 4287239202
0.011527241 0.038248807 0.57758319 4287370272
0.013126859 0.038306359 0.57845229 4287501858
0.01469831 0.038278177 0.57802671 4287370272
0.016263962 0.038241833 0.57747787 4287370272
0.01785887 0.038274623 0.57797301 4287370272
0.019442255 0.038279388 0.57804501 4287304225
0.021040386 0.038310297 0.57851171 4287304225
0.022570811 0.03822222 0.5771817 4287370018
0.024204327 0.038308825 0.57848948 4287238432
0.025772285 0.038287405 0.57816607 4287370018
0.027420994 0.038381495 0.57958686 4287370018
0.02895632 0.038315266 0.57858676 4287435811
0.03062259 0.038420189 0.58017117 4287369507
0.032187693 0.038394101 0.57977724 4287172641
0.033800647 0.038424857 0.58024168 4287435300
0.035346046 0.038379505 0.57955682 4287435300
0.036881961 0.038328189 0.5787819 4287238434
0.038479816 0.038342819 0.57900286 4287304227
0.040051281 0.038331032 0.57882482 4287304227
0.041659139 0.038353648 0.57916635 4287370022
0.043253604 0.03836273 0.5793035 4287304746
0.045082614 0.038571842 0.58246124 4285734960
0.0068043508 0.039927263 0.57901251 4287042085
0.0083473306 0.039732937 0.57619447 4287567401
0.0099402498 0.039800294 0.57717121 4287303714
0.011512944 0.039779302 0.57686681 4287173407
0.013085315 0.039762393 0.57662159 4287632931
0.014619604 0.039645847 0.5749315 4287370018
0.016233211 0.039746143 0.57638597 4287304225
0.017827675 0.039785963 0.57696342 4287370018
0.019419203 0.039813288 0.57735968 4287304225
0.020922823 0.03966983 0.5752793 4287304227
0.022434244 0.039560195 0.5736894 4287172641
0.02400898 0.039569248 0.57382065 4287238432
0.02561385 0.039623801 0.57461178 4287370018
0.027238127 0.039700337 0.57572168 4287303968
0.028830739 0.039724872 0.57607746 4287369761
0.030426776 0.03975134 0.57646132 4287632165
0.031993147 0.039738353 0.57627296 4287500579
0.033601686 0.039776504 0.57682621 4287632679
0.035208736 0.039809547 0.57730544 4287435300
0.036771607 0.039791945 0.57705015 4287304227
0.038316313 0.039756946 0.57654262 4287238434
0.039846346 0.039710086 0.57586306 4287435813
0.041425571 0.039713956 0.57591921 4287435302
0.042964831 0.039680634 0.57543594 4287434533
0.044739228 0.03985915 0.57802474 4286257709
0.0068281856 0.041656479 0.58104074 4286976551
0.0083828056 0.041484591 0.5786432 4287238181
0.0099849366 0.041565079 0.57976586 4287436065
0.011566899 0.041551057 0.57957029 4287304227
0.013134748 0.041495826 0.5787999 4287369507
0.014688054 0.041411478 0.57762337 4287435811
0.016316205 0.041534033 0.57933283 4287304225
0.017915303 0.041567478 0.57979935 4287567397
0.019531304 0.041631516 0.58069259 4287501604
0.021066742 0.041527119 0.57923639 4287106848
0.022576798 0.041390784 0.57733476 4287435813
0.02415799 0.041394174 0.57738203 4287172639
0.02577321 0.041451871 0.57818681 4287172639
0.027416268 0.041545082 0.57948697 4287304225
0.028983247 0.04151912 0.57912481 4287370018
0.030559964 0.041509073 0.57898468 4287303968
0.032076795 0.041422684 0.57777971 4287303714
0.033724651 0.041505661 0.57893711 4287041055
0.035308413 0.041505855 0.5789398 4287370020
0.036960352 0.04158273 0.58001208 4287370020
0.038511734 0.041544806 0.57948309 4287501606
0.040092461 0.04154028 0.57941997 4287304227
0.041671842 0.041534759 0.57934296 4287434786
0.043257043 0.041535232 0.57934958 4287566635
0.044993851 0.0416761 0.58131444 4286586161
0.0068282052 0.043245953 0.58104241 4286452517
0.0083485516 0.042891402 0.57627875 4287304743
0.0099117467 0.042834647 0.57551616 4287041825
0.01149879 0.04288239 0.57615763 4287501345
0.013086158 0.042919684 0.57665873 4287304479
0.014680704 0.042969968 0.57733434 4287304225
0.016274851 0.043009426 0.57786447 4287370018
0.017861929 0.043024871 0.57807201 4287435811
0.019456519 0.043054428 0.5784691 4287567397
0.021015659 0.043006998 0.57783186 4287370018
0.022533894 0.042888343 0.57623762 4287304225
0.024075672 0.042827085 0.5754146 4287435811
0.02569245 0.042898573 0.57637507 4287304225
0.02729097 0.042933073 0.57683861 4287304225
0.028855694 0.042913534 0.57657611 4287238432
0.030374017 0.042830594 0.57546175 4287370018
0.031932142 0.042809188 0.57517415 4287370018
0.033568274 0.042889461 0.57625264 4287435811
0.035176188 0.042928096 0.57677174 4287172639
0.036804724 0.042987496 0.57756984 4287435811
0.038373407 0.042974982 0.5774017 4287304225
0.039861776 0.042877067 0.5760861 4287501604
0.041431684 0.042870969 0.57600421 4287238434
0.042963251 0.0428271 0.57541478 4287173157
0.044732757 0.043015134 0.57794118 4287044141
0.046707001 0.043380484 0.58284992 4287656562
0.0084083006 0.044785976 0.58040303 4287173157
0.0099438485 0.044552721 0.57738012 4287239204
0.011531775 0.044585917 0.57781035 4287370018
0.013087445 0.044501431 0.57671547 4287172382
0.014690188 0.044577964 0.57770729 4287370018
0.016267659 0.04457039 0.57760912 4287370018
0.017921392 0.044754606 0.57999647 4287567397
0.01953344 0.044813223 0.58075613 4287501604
0.021150921 0.044874553 0.5815509 4287238432
0.022665009 0.04472328 0.5795905 4287435811
0.02422497 0.044676397 0.57898289 4287370018
0.025820244 0.044696383 0.57924193 4287370018
0.027430873 0.044739112 0.57979566 4287370018
0.028997473 0.04470928 0.57940906 4287238432
0.030540131 0.044647541 0.57860893 4287238432
0.032144573 0.044677757 0.57900053 4287370020
0.033764198 0.04472525 0.57961601 4287501858
0.035356618 0.044734061 0.57973021 4287436065
0.036909614 0.044694375 0.57921588 4287435554
0.03857125 0.044784099 0.58037865 4287632933
0.040188555 0.04481728 0.5808087 4287435554
0.041811015 0.044853482 0.58127785 4287304477
0.043336954 0.044787277 0.58041984 4287501608
0.04501335 0.044875748 0.58156639 4286846499
0.0083976444 0.046314813 0.57966745 4287107878
0.0099199116 0.046021011 0.57599026 4287106850
0.011514212 0.046096124 0.57693034 4287238432
0.013071522 0.046022892 0.5760138 4287106846
0.0146477 0.046024695 0.57603639 4287304225
0.016188588 0.045926034 0.57480156 4287435811
0.017797489 0.046020709 0.5759865 4287370018
0.019417452 0.046126261 0.57730758 4287435811
0.021026345 0.046191625 0.57812566 4287370018
0.022605499 0.046187077 0.57806873 4287172639
0.024143822 0.046105158 0.57704341 4287304227
0.025706772 0.046077427 0.57669634 4287370020
0.027256222 0.046030112 0.57610416 4287370018
0.028873896 0.04609688 0.57693982 4287435811
0.030408023 0.046030261 0.57610601 4287304225
0.032008864 0.046066221 0.57655609 4287435811
0.033526868 0.045985185 0.57554185 4287435552
0.035173327 0.046079703 0.57672483 4287238173
0.036732879 0.046057139 0.57644242 4287238175
0.038421229 0.046191279 0.5781213 4287369759
0.039978441 0.04616338 0.57777214 4287436065
0.041557446 0.046161819 0.57775259 4287435552
0.043059625 0.046078157 0.57670552 4287501347
0.044759955 0.046204962 0.57829255 4287305254
0.046620011 0.046482358 0.5817644 4286260017
0.0084317029 0.048094682 0.58201844 4286845735
0.00996539 0.047814757 0.57863092 4287303714
0.011543649 0.047796115 0.57840532 4287304225
0.013137035 0.047837049 0.57890069 4287172382
0.0146943 0.047751796 0.577869 4287369761
0.016252179 0.0476849 0.57705945 4287304225
0.017866084 0.047779683 0.57820648 4287238432
0.01950351 0.047916837 0.57986623 4287435811
0.021125931 0.04799927 0.58086383 4287238434
0.022677179 0.047919773 0.57990175 4287041057
0.024219709 0.04783345 0.57885712 4287370020
0.02577121 0.047774348 0.57814193 4287304227
0.0273603 0.047787741 0.57830399 4287238432
0.028978245 0.047847308 0.57902485 4287501604
0.030532597 0.047801144 0.57846618 4287172639
0.032142259 0.047841858 0.57895887 4287501858
0.033685837 0.047784999 0.57827079 4287369759
0.035354473 0.047902685 0.57969499 4287632931
0.036963228 0.047932621 0.58005726 4287303968
0.038657229 0.048066083 0.58167237 4287304479
0.040244218 0.048061196 0.58161318 4287238434
0.041826218 0.048050947 0.58148921 4287435552
0.043325093 0.047949456 0.58026099 4287304993
0.045107391 0.048157725 0.58278137 4287107878
0.0083973696 0.049484391 0.57964849 4286911528
0.0099231284 0.049188036 0.57617706 4287107365
0.011488619 0.049142871 0.57564801 4287566886
0.013121542 0.049362268 0.57821798 4287238686
0.014694531 0.049333256 0.57787812 4287106846
0.0162495 0.049255248 0.57696438 4287435811
0.017786233 0.049140673 0.57562226 4287567397
0.019393429 0.049223579 0.5765934 4287435811
0.021007931 0.049311165 0.57761937 4287501606
0.022596834 0.049330611 0.57784712 4287435813
0.024128938 0.04923163 0.57668769 4287304227
0.02563856 0.049101733 0.57516611 4287435811
0.027201198 0.049082521 0.5749411 4287370272
0.028797397 0.049122661 0.57541126 4287370272
0.030390102 0.049152989 0.5757665 4287304477
0.031938814 0.049112678 0.57529432 4287501858
0.033494819 0.049086839 0.57499164 4287172893
0.035160404 0.04921671 0.57651293 4287238686
0.03683703 0.049350221 0.57807684 4287370272
0.038538698 0.04950491 0.57988882 4287370018
0.040057119 0.049421281 0.57890922 4287304227
0.041613884 0.049389523 0.57853723 4287173409
0.043047074 0.0492188 0.57653743 4287370020
0.044868097 0.049487911 0.57968974 4287173411
0.046647418 0.049694221 0.58210641 4286912808
0.008465942 0.051486969 0.58438188 4286977319
0.0099693928 0.051000759 0.57886332 4287435815
0.011514832 0.050833195 0.57696146 4287304997
0.013135681 0.050998792 0.57884103 4287304227
0.014732974 0.05104715 0.57938987 4287370018
0.016285975 0.050947551 0.57825941 4287304225
0.017858302 0.050920699 0.57795465 4287370018
0.019423479 0.050879478 0.57748681 4287370018
0.021097444 0.051108003 0.58008057 4287304225
0.022644108 0.051017735 0.57905602 4287238432
0.024230083 0.051022056 0.57910508 4287370018
0.025742119 0.050879702 0.57748932 4287238432
0.027378088 0.050984602 0.57867998 4287501858
0.029013894 0.05107775 0.57973719 4287304479
0.030664844 0.051186517 0.58097172 4287436063
0.032207355 0.051112484 0.58013141 4287304477
0.033722308 0.051003713 0.57889688 4287436065
0.035284378 0.050972771 0.57854569 4287304479
0.036966175 0.051110018 0.58010346 4287370018
0.038668629 0.051263362 0.58184391 4287238432
0.040282611 0.05129192 0.58216804 4287501858
0.041770529 0.051163901 0.580715 4287435813
0.043212183 0.050990663 0.57874876 4287632163
0.0449409 0.051156443 0.58063036 4287303976
0.046825681 0.05148248 0.58433092 4286848566
0.009953008 0.052497733 0.57791197 4287041831
0.011498755 0.052338205 0.57615584 4287435815
0.013083545 0.052373428 0.57654357 4287238432
0.014696821 0.052502833 0.57796812 4287304227
0.016239744 0.052380186 0.57661796 4287501606
0.017802037 0.052336197 0.57613373 4287304227
0.019355489 0.052275483 0.57546538 4287304227
0.020975931 0.052391224 0.57673949 4287304225
0.022526534 0.052328542 0.57604945 4287172639
0.024140662 0.052411973 0.5769679 4287567397
0.025687765 0.052348573 0.57626998 4287369761
0.027306978 0.052430961 0.57717693 4287304479
0.028908914 0.052472983 0.57763952 4287238686
0.030552471 0.052582279 0.5788427 4287304479
0.032087132 0.052502632 0.57796592 4287370272
0.033524014 0.052277979 0.57549286 4287238684
0.035008226 0.052143976 0.5740177 4287370270
0.036649991 0.052246079 0.57514167 4287304477
0.038370866 0.052447908 0.57736349 4287304479
0.040029872 0.052552551 0.57851541 4287435554
0.041528217 0.052446343 0.57734627 4287304225
0.042979673 0.052290868 0.57563472 4287304225
0.044595748 0.052339587 0.57617104 4287303974
0.046302781 0.052488077 0.5778057 4287174448
0.048267052 0.052908752 0.58243662 4287716713
0.010005194 0.054362074 0.58094209 4287107878
0.011555051 0.054178152 0.57897663 4287172639
0.013147905 0.054215875 0.57937974 4287435554
0.014758074 0.054309193 0.58037698 4287370018
0.016294947 0.054140851 0.578578 4287238432
0.017878965 0.054145094 0.57862335 4287106846
0.01944465 0.054097641 0.57811624 4287435811
0.021068249 0.054206338 0.57927781 4287370018
0.022586517 0.054047771 0.57758331 4287436065
0.024222892 0.054174088 0.57893318 4287238173
0.025821779 0.054206204 0.57927638 4287435552
0.027458001 0.054308452 0.58036906 4287304479
0.029052958 0.054322362 0.58051771 4287501858
0.030655207 0.054347761 0.58078915 4287501858
0.032184035 0.054246902 0.57971132 4287436065
0.033641595 0.054041035 0.57751131 4287173661
0.035139505 0.053915545 0.57617027 4287173661
0.036793642 0.054030243 0.57739598 4287370272
0.038451087 0.054140154 0.57857054 4287370272
0.040147673 0.054294307 0.5802179 4287369507
0.041672647 0.054213479 0.57935417 4287369759
0.043227568 0.054176111 0.57895482 4287370022
0.044777315 0.054135129 0.57851684 4287304229
0.046486009 0.054282542 0.58009219 4287107628
0.048364952 0.054612473 0.58361799 4285937735
0.0099817216 0.055819899 0.57957923 4286845733
0.011498743 0.055490132 0.57615525 4287436583
0.013081153 0.055517383 0.57643819 4287172639
0.014671548 0.055569015 0.57697427 4287304225
0.016242664 0.055544686 0.57672167 4287041053
0.017806107 0.055500746 0.57626545 4287238432
0.019396391 0.055540811 0.57668144 4287304225
0.020940192 0.055451762 0.57575685 4287238432
0.022491474 0.055393592 0.57515287 4287370272
0.024104705 0.055485632 0.57610852 4287238173
0.025704706 0.055537786 0.57665002 4287435552
0.027292263 0.055558577 0.57686591 4287370270
0.028849958 0.055519629 0.57646149 4287501856
0.030432543 0.055530135 0.57657057 4287501856
0.032003608 0.055519622 0.57646143 4287436065
0.033522643 0.055424068 0.57546932 4287107868
0.035033517 0.055324208 0.57443243 4287239200
0.036642972 0.055381905 0.57503152 4287436065
0.038270745 0.055461407 0.57585698 4287567651
0.039916527 0.05555968 0.57687736 4287501858
0.041503564 0.055571828 0.57700348 4287238432
0.04306528 0.055550426 0.57678127 4287238686
0.044712458 0.055636879 0.57767892 4287041572
0.046296485 0.055641524 0.57772714 4287107877
0.048211932 0.056031041 0.58177149 4285468969
0.010062657 0.057870716 0.58427864 4286910498
0.011565195 0.057395916 0.57948494 4287107618
0.013138749 0.057345528 0.57897621 4287370272
0.01470594 0.057281204 0.57832676 4287106846
0.016278272 0.057247445 0.57798594 4287370018
0.017842561 0.057193886 0.57744521 4287370018
0.019436035 0.057234984 0.57786012 4287304225
0.021039957 0.057298351 0.57849991 4287238686
0.022617303 0.05728554 0.57837057 4287238686
0.024239505 0.057380594 0.57933027 4287107100
0.025815727 0.057361811 0.5791406 4287436065
0.027399836 0.057361715 0.57913965 4287436063
0.028995376 0.057384249 0.57936716 4287304477
0.030594438 0.05741106 0.57963783 4287173661
0.032158412 0.057372626 0.5792498 4287371040
0.033693206 0.057288185 0.57839727 4287436063
0.035256702 0.057257943 0.57809192 4287501858
0.036936518 0.057411082 0.57963806 4287108127
0.038547341 0.057448801 0.58001888 4287173920
0.040159307 0.057485167 0.58038604 4287303714
0.041800953 0.057559639 0.58113796 4287172641
0.043542396 0.057761043 0.58317137 4286583843
0.010056441 0.059432182 0.58391768 0
0.011530825 0.058805726 0.57776278 4287173668
0.013062633 0.058587842 0.57562208 4287435554
0.014632449 0.058568969 0.57543665 4287304225
0.016198071 0.058538601 0.57513827 4287238432
0.017755991 0.058488242 0.57464349 4287304225
0.019339286 0.058522858 0.5749836 4287436065
0.020923372 0.058554489 0.57529438 4287370272
0.022539373 0.058664758 0.57637775 4287304479
0.024128571 0.058695413 0.57667893 4287172893
0.025740681 0.058774613 0.57745707 4287370272
0.027291859 0.058713574 0.57685739 4287304993
0.028873896 0.058721963 0.57693982 4287041821
0.030461216 0.058739673 0.57711381 4287107616
0.032085527 0.058823455 0.57793695 4286910750
0.033681195 0.058849324 0.5781911 4287042082
0.035257947 0.058841303 0.5781123 4286911779
0.036970869 0.059051465 0.58017713 4286583844
0.038656391 0.059202366 0.58165973 4286126375
0.040360942 0.059369326 0.58330011 4285343276
0.011635162 0.060932521 0.58299065 4286976291
0.013160066 0.060611121 0.57991558 4287173409
0.014730445 0.060545783 0.57929045 4287172641
0.016284293 0.060431786 0.57819974 4287304227
0.017860325 0.06041301 0.5780201 4287304225
0.019438457 0.060403816 0.57793212 4287172893
0.021029366 0.060432728 0.57820874 4287370272
0.022630237 0.060484212 0.57870132 4287436065
0.024229879 0.060525902 0.57910019 4287107100
0.025880603 0.060682241 0.58059603 4287042336
0.027465409 0.060674883 0.58052564 4286911009
0.029077707 0.060725741 0.58101225 4287108388
0.030707303 0.060805582 0.58177614 4287042595
0.032376066 0.060951296 0.58317029 4286648866
0.011615369 0.062420838 0.58199888 4286910756
0.013086377 0.061849125 0.57666838 4287172643
0.01466097 0.061837319 0.57655829 4287303716
0.016247023 0.061871435 0.5768764 4286975778
0.017846067 0.061944608 0.57755864 4287107875
0.019431641 0.061962929 0.57772946 4287174179
0.020989597 0.061897054 0.57711524 4286911009
0.022651937 0.062126681 0.57925624 4286976804
0.024263572 0.062196311 0.57990545 4286322211
0.02602572 0.062619537 0.58385152 4285668391
0.014794596 0.063992389 0.58181322 4286976291
0.016402479 0.064056501 0.58239615 4286714659
0.018048359 0.064244516 0.58410555 4286649636
