# .PCD v0.7 - Point Cloud Data file format
VERSION 0.7
FIELDS x y z rgba
SIZE 4 4 4 4
TYPE F F F U
COUNT 1 1 1 1
WIDTH 727
HEIGHT 1
VIEWPOINT 0 0 0 1 0 0 0
POINTS 727
DATA ascii
0.024980227 0.0085079623 0.59703368 4292600287
0.026582461 0.008498095 0.59634125 4292666082
0.028188908 0.0084906379 0.59581798 4292731875
0.029858701 0.0085020326 0.59661758 4292731875
0.031444144 0.0084894728 0.59573621 4292731873
0.032992605 0.0084686596 0.59427565 4292798436
0.020079972 0.010140579 0.59700525 4292139734
0.021611135 0.010093009 0.59420466 4292073943
0.023221208 0.010086368 0.59381366 4291810771
0.024765443 0.010053868 0.59190029 4292468703
0.026356811 0.010043317 0.59127909 4292731875
0.027975243 0.010043702 0.5913018 4292731875
0.029663496 0.010067742 0.59271711 4292863461
0.031370904 0.010095455 0.59434861 4292863459
0.03303371 0.010106791 0.595016 4292731873
0.034939367 0.010187875 0.59978962 4292272094
0.0167803 0.011750055 0.59581125 4291350990
0.01825963 0.011654046 0.59094298 4291614162
0.019797903 0.011608214 0.58861893 4291745748
0.021357099 0.011580622 0.58721983 4292073943
0.022982301 0.011590176 0.5877043 4291942359
0.024578311 0.011584723 0.58742779 4292073945
0.026238265 0.011608228 0.58861965 4292797668
0.027816661 0.011595021 0.58794993 4292797668
0.029511238 0.011629037 0.58967477 4292995047
0.031152753 0.011639701 0.59021556 4293126633
0.032840732 0.011665821 0.59154004 4292797668
0.034645449 0.011729009 0.59474409 4292403680
0.036568649 0.01182484 0.59960341 4292140508
0.01525473 0.01347182 0.59990853 4291218634
0.016749544 0.013355288 0.59471923 4291416013
0.018301303 0.013300773 0.59229165 4291481806
0.019834619 0.01324281 0.58971053 4291810771
0.021433981 0.013234348 0.58933371 4292008150
0.023023723 0.013221543 0.58876354 4291942359
0.024654245 0.013232303 0.58924264 4292073945
0.026263114 0.013230831 0.58917713 4292666082
0.027910618 0.013247869 0.58993584 4292731875
0.029632401 0.013296374 0.59209579 4293192426
0.031350777 0.013338401 0.59396726 4293258219
0.033006504 0.013350948 0.59452599 4292797668
0.034759104 0.013399659 0.59669513 4292469473
0.013567231 0.015061123 0.59785783 4290494913
0.015147181 0.015006236 0.59567904 4290889671
0.016677819 0.0149179 0.5921725 4291087050
0.018220363 0.014854911 0.58967215 4291416015
0.019752845 0.014794631 0.58727932 4291679187
0.021340903 0.014781915 0.58677453 4291942359
0.022933278 0.014773756 0.5864507 4292008152
0.024566686 0.014791373 0.58714998 4291744980
0.026186476 0.014799128 0.58745784 4292534496
0.027833203 0.014820334 0.58829957 4292666082
0.029533435 0.01486615 0.59011829 4293192426
0.031140814 0.014862902 0.58998936 4293324012
0.032724977 0.014849441 0.58945501 4292929254
0.034415007 0.014883025 0.59078813 4292535266
0.036337942 0.015009802 0.59582061 4292206301
0.013633695 0.016778272 0.60078669 4290429118
0.015214832 0.016709929 0.5983395 4290692290
0.016794607 0.01665351 0.59631926 4291152843
0.018344274 0.016579868 0.59368235 4291481808
0.019895758 0.01651971 0.5915283 4291548371
0.021504752 0.016512766 0.59127963 4291679957
0.023115991 0.016508393 0.59112304 4291943129
0.024739787 0.016512977 0.59128714 4291613394
0.026343744 0.016504565 0.59098595 4292534496
0.028006691 0.01653195 0.59196651 4292797668
0.029632831 0.0165358 0.59210438 4292929254
0.031233722 0.016525893 0.59174961 4293389805
0.032817494 0.016508348 0.59112144 4293061610
0.034566745 0.016571786 0.59339297 4292535266
0.036441259 0.016686894 0.59751469 4292403426
0.013594019 0.018368028 0.5990383 4290363323
0.015182347 0.018307429 0.59706199 4290692290
0.016778216 0.018266808 0.59573722 4291021255
0.018277403 0.018137442 0.59151816 4291284427
0.019818956 0.018067738 0.5892449 4291679185
0.021402003 0.018043501 0.58845448 4291811541
0.023039289 0.018065184 0.58916163 4291811541
0.024673205 0.018081564 0.58969581 4291679957
0.026320873 0.018105391 0.59047288 4292074715
0.027938135 0.018106759 0.59051746 4292535012
0.029476771 0.018059803 0.5889861 4292732645
0.031008497 0.018013699 0.58748251 4292864231
0.032616597 0.018014321 0.58750284 4293127403
0.034379002 0.018096106 0.59017009 4292601059
0.036161471 0.018180644 0.5929271 4292403680
0.038060267 0.018313896 0.59727287 4292402910
0.013691438 0.020149985 0.60333121 4290363325
0.015283008 0.020072814 0.60102057 4290692290
0.016860265 0.019993659 0.59865052 4291021255
0.018404009 0.0198923 0.59561557 4291350220
0.019969694 0.019829208 0.59372652 4291679185
0.021566181 0.019803895 0.59296858 4291614162
0.023194151 0.019809011 0.59312177 4291811541
0.024798097 0.019794283 0.59268075 4291679957
0.026457574 0.019822966 0.5935396 4291416785
0.028042745 0.01979588 0.59272856 4292600289
0.029586222 0.019743929 0.59117305 4292731875
0.031187629 0.019734019 0.59087634 4293126633
0.032821205 0.019744439 0.59118831 4293389805
0.034604043 0.019839453 0.59403324 4292995047
0.036342032 0.019901387 0.59588766 4292600287
0.013686601 0.021792611 0.60311806 4290363325
0.01524361 0.021660838 0.59947121 4290560704
0.016789755 0.021540722 0.59614694 4290758083
0.018334156 0.021439835 0.59335488 4291021255
0.01991616 0.021395752 0.59213489 4291547599
0.02149309 0.021353262 0.59095895 4291744980
0.023070503 0.02131716 0.5899598 4292008152
0.024653032 0.0212902 0.58921367 4291942359
0.026265066 0.021290462 0.58922094 4291547601
0.027809711 0.021239229 0.58780301 4292008152
0.029376259 0.021209408 0.58697772 4292600289
0.030998064 0.021220505 0.58728486 4292863461
0.032722875 0.021297552 0.58941716 4293258219
0.034452159 0.021370137 0.59142596 4292995047
0.036156472 0.021421416 0.59284514 4292797666
0.037961002 0.021525117 0.59571511 4292534494
0.039807491 0.021643098 0.59898025 4292271324
0.01531153 0.023404421 0.60214221 4290692292
0.016856108 0.023262968 0.59850293 4290758085
0.018431047 0.023184752 0.59649062 4291152843
0.020042479 0.023161428 0.59589052 4291350222
0.021668632 0.023157345 0.5957855 4291547601
0.02325112 0.023110433 0.59457856 4291679187
0.024821484 0.023058394 0.59323972 4291876566
0.026393816 0.023014454 0.59210926 4291679187
0.027892981 0.022915488 0.58956307 4291942359
0.029469708 0.022887576 0.58884495 4292600289
0.031081932 0.022888698 0.5888738 4292863461
0.03284204 0.022993246 0.59156358 4293060840
0.034577753 0.023071697 0.59358197 4293126633
0.036298547 0.023133604 0.59517467 4292731875
0.038023822 0.023192927 0.59670097 4292534496
0.015276374 0.024993977 0.60075969 4290560706
0.016811125 0.02483364 0.59690577 4290626499
0.018362587 0.024724189 0.594275 4291021257
0.019948738 0.024675449 0.59310347 4291152843
0.021572506 0.024677074 0.59314251 4291350222
0.023159135 0.024638956 0.59222633 4291613394
0.024748292 0.024608338 0.59149039 4291810773
0.026283456 0.024531083 0.58963346 4291744980
0.027782163 0.024430703 0.58722073 4291481808
0.02934823 0.024397293 0.58641768 4292337117
0.03085742 0.024322513 0.58462024 4292534496
0.032575265 0.024411466 0.58675832 4292929254
0.034288187 0.024488548 0.58861107 4293258219
0.036039252 0.024584735 0.59092307 4292863461
0.037662629 0.0245893 0.5910328 4292666082
0.039499298 0.024727013 0.59434289 4292600289
0.015344266 0.026755651 0.60342962 4290692292
0.016889496 0.026589768 0.59968841 4290823878
0.018468371 0.026501538 0.59769851 4290955464
0.020040294 0.026418492 0.59582555 4291152843
0.021675119 0.026424626 0.5959639 4291284429
0.023267929 0.026382258 0.59500837 4291547601
0.024863761 0.026348639 0.59425014 4291744978
0.026410474 0.026270282 0.59248292 4291810771
0.027965238 0.026208535 0.59109032 4291416013
0.029519407 0.026153009 0.58983803 4292402910
0.031009475 0.026049389 0.58750105 4292534496
0.032671828 0.026093578 0.58849764 4292732645
0.034392845 0.026178269 0.59040773 4292995817
0.036166087 0.02629333 0.59300274 4292798438
0.03775961 0.026273465 0.59255469 4292535266
0.039579466 0.026406238 0.59554917 4292534496
0.012072504 0.028475659 0.60490412 4291744980
0.013665921 0.028348681 0.60220677 4291547601
0.01524483 0.028222164 0.59951919 4291152843
0.016827522 0.028126543 0.59748793 4291087050
0.018410599 0.028048443 0.59582883 4291021257
0.019971939 0.027952619 0.59379327 4291152843
0.02154495 0.02788632 0.59238487 4291218636
0.0231189 0.02783042 0.59119743 4291481806
0.024699649 0.027789483 0.5903278 4291744978
0.026288299 0.027761912 0.58974212 4291679185
0.02785014 0.027710857 0.58865756 4291481806
0.029404726 0.027658556 0.58754653 4291547599
0.030873444 0.027535092 0.5849238 4292600289
0.032494701 0.027553139 0.58530718 4292600289
0.034189586 0.027628988 0.58691841 4292732645
0.035952669 0.027750675 0.58950341 4292930024
0.037645888 0.027810303 0.59077007 4292601059
0.039391048 0.027901815 0.59271407 4292469473
0.041364409 0.028141342 0.59780228 4292402910
0.013667726 0.029999891 0.60228628 4292600289
0.015273747 0.029918706 0.60065639 4292468703
0.016890496 0.029872261 0.59972394 4292008152
0.018508289 0.029835721 0.59899038 4291481806
0.020107459 0.029777549 0.59782249 4291350220
0.021707576 0.029729422 0.5968563 4291350220
0.023257518 0.029624119 0.59474218 4291350220
0.024843723 0.029575756 0.59377122 4291547599
0.026404215 0.029504593 0.59234256 4291679185
0.027983209 0.02946114 0.59147018 4291547599
0.02951348 0.029373944 0.58971959 4291350222
0.031053703 0.029305175 0.58833897 4292337887
0.032702867 0.029340927 0.58905673 4292469473
0.0343634 0.029383041 0.58990222 4292732645
0.036063179 0.029453434 0.59131545 4293193196
0.037771534 0.029524483 0.59274185 4292601059
0.039525833 0.029624119 0.59474218 4292601059
0.041497741 0.029872522 0.59972918 4292272094
0.0087090954 0.031588502 0.60116613 4292074715
0.010325706 0.031503703 0.59955233 4292272094
0.01194365 0.031445663 0.59844774 4292601059
0.013576231 0.031435505 0.59825444 4292601059
0.015197234 0.031403609 0.59764743 4292601059
0.016824134 0.031388909 0.59736764 4292798184
0.018416075 0.031317361 0.59600604 4292732645
0.020013796 0.031266484 0.59503776 4292666082
0.021597657 0.031203233 0.59383404 4292008150
0.023186548 0.03115559 0.59292734 4291679185
0.024757037 0.031091068 0.59169942 4291613394
0.026334111 0.031042222 0.59076983 4291613394
0.027906762 0.030994119 0.58985436 4291613394
0.029462259 0.030933259 0.58869612 4291481808
0.030998338 0.030859377 0.58729005 4291679957
0.032589406 0.030844823 0.58701307 4292469219
0.034182463 0.030833425 0.58679616 4292469219
0.035838112 0.030876981 0.58762509 4292732391
0.037517019 0.030935975 0.5887478 4292798438
0.039298177 0.031070955 0.59131664 4292666852
0.041117627 0.031224342 0.59423578 4292403680
0.043061391 0.031456877 0.59866118 4292140508
0.0070474427 0.033151761 0.59969831 4292272094
0.0086926231 0.033170048 0.60002905 4292403680
0.010331719 0.033162996 0.5999015 4292535266
0.011986526 0.033201393 0.60059607 4292666082
0.013613847 0.033163577 0.59991205 4292731875
0.015242505 0.033136807 0.59942776 4292732645
0.016867632 0.033108301 0.59891212 4292864231
0.018483762 0.03306875 0.59819663 4292864231
0.02010539 0.033044666 0.59776098 4292995047
0.021735953 0.033037785 0.59763652 4292929254
0.023311678 0.032954346 0.59612715 4292600289
0.024901556 0.03290052 0.59515345 4292139738
0.026480135 0.032839283 0.5940457 4291810773
0.028154988 0.032897621 0.595101 4291679187
0.029705342 0.032812059 0.59355325 4291547601
0.031264544 0.032744635 0.59233356 4291679957
0.032807939 0.032668114 0.59094936 4292469473
0.034417979 0.032662023 0.59083915 4292601059
0.036076948 0.032700829 0.59154117 4292798438
0.03774403 0.032743346 0.59231025 4292930024
0.039491206 0.032848984 0.59422117 4292732645
0.041249774 0.032955363 0.59614557 4292469473
0.0021205691 0.034698743 0.59808832 4292272094
0.0037446592 0.034588877 0.59619457 4292403680
0.0053566443 0.034467779 0.59410727 4292337887
0.0069703842 0.034411721 0.59314102 4292403680
0.008584586 0.034378685 0.59257156 4292469473
0.01022095 0.034430791 0.59346974 4292731875
0.011846834 0.034438159 0.5935967 4292863461
0.01347221 0.034442447 0.59367061 4292731875
0.015091074 0.034430955 0.59347254 4292929254
0.016698226 0.034397572 0.59289712 4292863977
0.018303527 0.034366619 0.5923636 4292995817
0.019941477 0.034397017 0.59288758 4292995047
0.021570601 0.034408767 0.59309012 4292929254
0.023181146 0.03439131 0.59278917 4292929254
0.024729807 0.034290329 0.5910486 4292929254
0.026386356 0.034342151 0.59194189 4292666082
0.028056221 0.034404319 0.59301341 4292337117
0.0296987 0.034427937 0.59342051 4291876566
0.03119234 0.034285512 0.59096557 4291481808
0.0326939 0.034165397 0.5888952 4292666082
0.034265533 0.034126353 0.58822221 4292469473
0.035952959 0.034200959 0.58950818 4292666852
0.037624232 0.034254454 0.59043026 4292930024
0.039264336 0.034276336 0.59080744 4292666082
0.040913261 0.034303881 0.59128225 4292600289
0.042899691 0.034601558 0.59641314 4292074715
0.0021198578 0.036322542 0.59788769 4292272094
0.0037422581 0.036196455 0.59581226 4292337887
0.0053543006 0.036077086 0.59384733 4292535266
0.0069880984 0.036125749 0.59464842 4292666852
0.0086028194 0.036076043 0.59383017 4292732645
0.010231327 0.036090754 0.59407234 4292732645
0.011837244 0.036032666 0.59311616 4292732645
0.01345093 0.036009382 0.59273291 4292798184
0.015078586 0.036024481 0.59298146 4292732391
0.016691664 0.036005203 0.59266412 4292863207
0.018329395 0.036037806 0.5932008 4292863207
0.019991899 0.03610985 0.5943867 4292929254
0.021664128 0.03618731 0.5956617 4292994534
0.023237705 0.036100667 0.59423554 4292929254
0.024845598 0.036075182 0.59381604 4292797414
0.02647984 0.036088731 0.59403908 4292863207
0.028171683 0.036174681 0.59545386 4292863207
0.029770613 0.036138449 0.59485745 4292205531
0.031336211 0.036067609 0.59369135 4291876566
0.032838907 0.035934914 0.59150714 4292205531
0.034474388 0.035953164 0.59180754 4292403680
0.036136072 0.035995878 0.59251064 4292403680
0.037862726 0.036096863 0.59417289 4292535266
0.039442018 0.036054827 0.593481 4292535266
0.041124497 0.036106713 0.59433502 4292797668
0.043009989 0.036326118 0.59794658 4292402910
0.002099772 0.037598319 0.59222263 4292272094
0.0037080513 0.037480455 0.59036613 4292469473
0.0053080642 0.037375901 0.58871925 4292666852
0.0069283 0.037429273 0.58955991 4292666852
0.0085286228 0.037375223 0.58870858 4292601059
0.01015432 0.037431881 0.58960098 4292601059
0.011751262 0.037381534 0.58880794 4292929254
0.013381382 0.037436143 0.58966815 4292929254
0.014978689 0.037397083 0.58905292 4292797668
0.016575621 0.037364766 0.58854383 4292929254
0.018175773 0.03734478 0.58822906 4292864231
0.019824814 0.037420329 0.58941907 4292798438
0.021466453 0.037471592 0.59022653 4292731875
0.023063712 0.037443638 0.58978617 4292666852
0.024656963 0.037413254 0.58930761 4292798438
0.026277477 0.037425429 0.58949935 4292535266
0.027898133 0.037436385 0.58967197 4292797668
0.029562382 0.037501443 0.59069669 4292534496
0.031149207 0.037466634 0.59014839 4292337117
0.032695279 0.037388649 0.58892006 4291942359
0.034258842 0.037337054 0.58810735 4292140508
0.035869248 0.037338845 0.5881356 4292337887
0.037522607 0.037383281 0.58883548 4292601059
0.039138835 0.037388586 0.58891904 4292601059
0.040820152 0.037453186 0.58993661 4292797668
0.042693019 0.037681948 0.59353989 4292534496
0.044642858 0.037959397 0.59791005 4292402910
0.0021162676 0.039526362 0.59687513 4292666082
0.0037302223 0.039329078 0.59389603 4292666852
0.0053461362 0.03926589 0.59294182 4292666852
0.0069501577 0.039165102 0.59141988 4292666852
0.0085709235 0.039178919 0.59162849 4292732645
0.010182582 0.039153319 0.59124196 4292863461
0.011818088 0.039213873 0.59215635 4292666082
0.013412024 0.039138518 0.59101844 4292863461
0.015018298 0.039111506 0.59061056 4292797668
0.016616363 0.039070442 0.58999044 4292863461
0.018256474 0.039126758 0.59084082 4292798438
0.019897955 0.039176609 0.59159362 4292601059
0.021530079 0.03920193 0.59197599 4292601059
0.02309406 0.039108306 0.59056222 4292601059
0.024707692 0.039105512 0.59052002 4292535266
0.026309701 0.039085791 0.59022224 4292534496
0.027977085 0.03915986 0.59134072 4292008152
0.029626528 0.03920209 0.59197843 4291416015
0.031314638 0.039288454 0.59328258 4291086537
0.032923292 0.039271537 0.59302711 4291152843
0.034534864 0.039259523 0.59284568 4292074715
0.036086857 0.039183896 0.59170365 4292206301
0.037711088 0.039189827 0.59179324 4292337887
0.03938042 0.039240215 0.59255415 4292469473
0.041079298 0.039314892 0.59368181 4292601059
0.042881954 0.039479438 0.59616655 4292666082
0.0021114014 0.041064382 0.59550261 0
0.0037025558 0.040649846 0.58949119 4292797414
0.0052973754 0.040514868 0.58753377 4292666852
0.0068950397 0.040459417 0.58672965 4292666852
0.0085165361 0.040538345 0.58787423 4292666852
0.010134846 0.040579446 0.58847022 4292535266
0.011776217 0.040688962 0.59005839 4292797668
0.013374351 0.040640686 0.58935833 4292731875
0.014955844 0.040557671 0.58815449 4292797668
0.016550135 0.040522113 0.58763885 4292731875
0.018162167 0.040532447 0.5877887 4292797668
0.019819759 0.040634509 0.58926874 4292535266
0.021429682 0.040630836 0.58921552 4292272351
0.023013316 0.040581323 0.58849746 4291943129
0.024557289 0.040472917 0.58692539 4291416785
0.02616927 0.04048302 0.5870719 4291219406
0.027797813 0.040516093 0.58755153 4291350222
0.02953458 0.040694669 0.59014118 4291416015
0.0311868 0.040744279 0.59086061 4291416015
0.032842308 0.040793087 0.59156841 4291481808
0.034363113 0.040677853 0.58989733 4291876566
0.035890151 0.040580004 0.58847833 4292272094
0.037420839 0.040494502 0.58723843 4292337887
0.039068032 0.040536929 0.58785367 4292469473
0.040747344 0.040608007 0.58888441 4292601059
0.042582624 0.040823203 0.59200513 4292403680
0.044501122 0.041099489 0.59601176 4292468703
0.0037220158 0.042484436 0.59258944 4292666082
0.0053181336 0.042287041 0.58983606 4292535266
0.0069278292 0.042264368 0.58951986 4292666852
0.0085516423 0.042320121 0.59029752 4292601059
0.01015448 0.042270854 0.58961028 4292535266
0.011790838 0.0423555 0.59079099 4292666082
0.013395605 0.042319935 0.5902949 4292666082
0.014989811 0.042262249 0.58949029 4292666082
0.016610824 0.042284004 0.58979374 4292468703
0.018264629 0.042377993 0.59110475 4292271324
0.019992219 0.042613972 0.59439623 4291285197
0.021627685 0.042632859 0.59465969 4291219404
0.02319807 0.042529784 0.59322196 4291745748
0.024768788 0.042440765 0.59198028 4291811541
0.026391281 0.042445935 0.5920524 4291810771
0.028061071 0.042522181 0.59311593 4291613392
0.029706568 0.042555291 0.59357774 4291350220
0.031361949 0.042598397 0.59417897 4291481808
0.033016764 0.042636521 0.59471077 4291152843
0.034568183 0.042543814 0.59341764 4291547601
0.036077876 0.042410377 0.59155643 4292272094
0.037578825 0.042278554 0.58971769 4292206558
0.039201424 0.042288814 0.5898608 4292338144
0.040890761 0.042367406 0.59095705 4292535266
0.042744629 0.042604018 0.59425741 4292601059
0.044647571 0.042870414 0.59797317 4292272094
0.003713055 0.043999195 0.5911628 4292403680
0.0052871364 0.04364457 0.58639812 4292469219
0.0068935393 0.043659743 0.58660197 4292600805
0.0084951594 0.043644611 0.58639866 4292731621
0.010095623 0.043629289 0.58619279 4292534242
0.01169954 0.043631043 0.58621639 4292666082
0.01333407 0.043732781 0.5875833 4292139736
0.01492255 0.043677844 0.58684516 4291613392
0.01657149 0.043793354 0.58839715 4291416013
0.018199217 0.043837313 0.58898777 4291613392
0.01994076 0.044125985 0.5928663 4291877334
0.021554882 0.044110477 0.59265792 4291943127
0.02318079 0.04411957 0.59278011 4291811541
0.024770543 0.044063158 0.59202218 4291810771
0.0263783 0.044043731 0.59176117 4291679185
0.027981373 0.044019185 0.59143138 4291613392
0.029597363 0.044016529 0.59139568 4291547599
0.031236535 0.044046838 0.5918029 4291613392
0.032844037 0.044031702 0.59159952 4291613392
0.034358468 0.043899074 0.58981758 4291152843
0.035879295 0.043786149 0.58830035 4292402910
0.037367806 0.043645173 0.58640623 4292402910
0.03895836 0.043630082 0.58620346 4292337887
0.040588465 0.043658722 0.58658826 4292535266
0.042432744 0.043906804 0.58992141 4292601059
0.044259973 0.044119712 0.59278202 4292535266
0.046204668 0.044430528 0.59695804 4292272094
0.0053326287 0.045637917 0.59144372 4292271840
0.0069272998 0.045485988 0.5894748 4292469219
0.0085375346 0.045474336 0.58932376 4292271324
0.010139553 0.045429561 0.58874351 4291744980
0.011742237 0.04539964 0.58835578 4291416015
0.013393213 0.045541137 0.59018952 4291679187
0.015010786 0.045550834 0.59031516 4291876566
0.016664704 0.04565822 0.59170681 4291876566
0.018306347 0.045715939 0.59245485 4292008150
0.020027116 0.045945805 0.59543377 4291810771
0.02165932 0.045953192 0.5955295 4291942357
0.023276024 0.045928951 0.59521538 4291744978
0.024881525 0.045887232 0.59467471 4291744978
0.026495544 0.045865372 0.59439141 4291481806
0.02815902 0.045926705 0.59518623 4291481804
0.029762141 0.045888271 0.59468818 4291613390
0.031364992 0.045853429 0.59423661 4291744978
0.032925848 0.045763653 0.59307319 4291810771
0.03448274 0.045677051 0.59195089 4291416015
0.036030315 0.045586437 0.59077656 4292073945
0.037588764 0.045516767 0.58987367 4292337887
0.039224178 0.045542192 0.59020317 4292469473
0.040882058 0.045590658 0.59083128 4292601059
0.042671058 0.045776106 0.5932346 4292732645
0.044423364 0.045910046 0.59497035 4292600289
0.04633541 0.046193767 0.59864724 4292600289
0.005319186 0.047136601 0.58995277 4291482578
0.0068948017 0.046877455 0.58670938 4291153613
0.0084874192 0.046809942 0.58586437 4291548371
0.010098192 0.046848096 0.58634192 4291942359
0.011683902 0.04677546 0.58543283 4292139738
0.013344819 0.046985127 0.58805698 4291942359
0.014973476 0.047048319 0.58884788 4291810773
0.01661074 0.047123656 0.58979076 4291876566
0.018247094 0.047183301 0.59053725 4291942357
0.019900296 0.047273263 0.59166324 4291810771
0.021526836 0.04729113 0.59188682 4291679185
0.023124186 0.047246847 0.59133261 4291679185
0.02474175 0.047246963 0.59133404 4291416013
0.026385333 0.047293697 0.59191895 4291481804
0.028039776 0.047353368 0.59266579 4291416011
0.029621433 0.047290314 0.59187663 4291481804
0.031167699 0.047180224 0.59049875 4291876564
0.032725502 0.047097586 0.58946449 4291876564
0.034313954 0.047064744 0.58905345 4291547601
0.035902016 0.047034338 0.58867288 4291547601
0.037430629 0.046932004 0.58739209 4292468703
0.039044961 0.04694115 0.58750653 4292534496
0.04062682 0.04691207 0.58714259 4292469473
0.042372249 0.047066897 0.58908039 4292863461
0.044022225 0.04710824 0.58959782 4292731875
0.045873281 0.047354229 0.59267658 4292600289
0.047766127 0.047625087 0.59606659 4292337117
0.0053840834 0.049345113 0.59715056 4292008920
0.0069486005 0.048860613 0.59128737 4291877334
0.0085421111 0.048724458 0.58963966 4291943127
0.010160699 0.048751865 0.58997136 4291943129
0.01178514 0.048796002 0.59050548 4291810773
0.01344744 0.048967358 0.59257913 4291613392
0.015118125 0.049129091 0.59453636 4291613392
0.01672359 0.049068052 0.59379768 4291547599
0.018370645 0.049129043 0.59453577 4291547599
0.01997458 0.049074173 0.59387177 4291481806
0.021653965 0.049198993 0.59538227 4291350220
0.02324033 0.049109779 0.59430265 4291284425
0.024872385 0.049122471 0.59445626 4291152839
0.026525538 0.049172714 0.59506428 4291087046
0.028189112 0.049235351 0.59582227 4291350218
0.029734841 0.049096558 0.59414268 4291679187
0.031251691 0.048926938 0.59209001 4291876566
0.032813739 0.048841316 0.59105384 4291876566
0.034486752 0.048921138 0.5920198 4291876566
0.036087599 0.048896018 0.59171581 4291416015
0.037648648 0.048821446 0.5908134 4292534496
0.039273735 0.048832644 0.59094888 4292402910
0.040877212 0.048817139 0.59076124 4292600289
0.042629849 0.048974179 0.59266168 4292863461
0.044268958 0.048994068 0.59290236 4292731875
0.046129055 0.049248479 0.59598112 4292600289
0.048039511 0.04953745 0.59947813 4292468703
0.0069532678 0.050511904 0.59168452 4291877334
0.0085186027 0.050198801 0.58801693 4291745748
0.010135946 0.050242953 0.58853412 4291745748
0.011768054 0.050338164 0.58964938 4291744978
0.01341188 0.050454501 0.59101212 4291481806
0.015057173 0.050550733 0.59213936 4291416013
0.0166754 0.050546229 0.59208661 4291218634
0.018336128 0.050659951 0.59341872 4291152841
0.019961149 0.05066454 0.59347248 4291087048
0.021612579 0.050730437 0.59424436 4290889669
0.023241477 0.050737914 0.59433198 4290955460
0.024879854 0.050763763 0.59463477 4291021253
0.02654241 0.050832745 0.59544277 4290955462
0.028131876 0.05076186 0.59461248 4291481806
0.029689454 0.050644334 0.59323579 4291679187
0.031180451 0.050431296 0.59074032 4291810773
0.032736678 0.050339561 0.58966577 4291679957
0.034321666 0.050298586 0.58918577 4291811543
0.035932921 0.050298061 0.58917964 4291482578
0.037447531 0.050168104 0.58765733 4292074713
0.039063625 0.050179206 0.58778739 4292600287
0.040622719 0.050119098 0.58708328 4292337887
0.042364318 0.050280176 0.58897012 4292731875
0.043953985 0.050255734 0.58868384 4292797668
0.045745756 0.050455939 0.59102899 4292731875
0.04752494 0.050629057 0.59305686 4292666082
0.049666889 0.051164459 0.5993284 4292206301
0.0070251045 0.052668948 0.59779745 4291679953
0.0085887937 0.052234113 0.59286201 4291416783
0.010211622 0.05223994 0.59292817 4291547599
0.011872737 0.052413192 0.59489459 4291218632
0.013512427 0.052461494 0.59544283 4291218632
0.015170741 0.052563936 0.59660554 4290955460
0.016817808 0.052611295 0.59714305 4290955460
0.018491812 0.052727073 0.59845716 4290758081
0.020146415 0.052773196 0.59898067 4290692288
0.021834698 0.052893981 0.60035157 4290626495
0.023547728 0.053053614 0.60216343 4290692288
0.025177024 0.053016059 0.6017372 4290494909
0.026782528 0.052936085 0.60082948 4291218634
0.028332984 0.052762851 0.59886324 4291416015
0.029904796 0.052646141 0.59753859 4291613394
0.031385731 0.052389838 0.59462953 4291679957
0.032897264 0.052207354 0.59255832 4291679957
0.034459159 0.052118171 0.59154606 4291943129
0.036101725 0.052153535 0.59194744 4291811543
0.037629526 0.052027185 0.59051335 4291482576
0.039204363 0.051973585 0.58990502 4292403678
0.040851939 0.052016847 0.59039605 4292469473
0.042601805 0.052182112 0.5922718 4292601059
0.044291385 0.052264128 0.59320271 4292731875
0.045937818 0.052291237 0.59351039 4292863461
0.047800526 0.052554272 0.59649587 4292600289
0.0070160143 0.054233868 0.5970239 4291152839
0.0085680522 0.053725742 0.59143031 4291284425
0.010193164 0.053764451 0.59185642 4291087046
0.011821397 0.053806756 0.59232211 4291021253
0.013480155 0.053961057 0.59402072 4290823874
0.015123439 0.054026883 0.59474534 4290560702
0.016839681 0.054315235 0.59791964 4290363323
0.018504683 0.054401901 0.59887367 4290429116
0.020196997 0.054548234 0.60048455 4290297530
0.021840466 0.054550562 0.60051018 4290165944
0.023538288 0.054678816 0.60192204 4289836979
0.02512265 0.054543972 0.60043764 4290297530
0.026647309 0.054304007 0.59779602 4290889669
0.028181296 0.054109704 0.59565705 4291218634
0.029710148 0.053927314 0.59364927 4291416785
0.031239197 0.053764168 0.59185332 4291350992
0.032755438 0.053596146 0.59000367 4291811543
0.034327809 0.053531434 0.58929127 4291811543
0.035953503 0.05355195 0.58951712 4291877336
0.037450656 0.053387459 0.58770639 4291350990
0.03899169 0.053296492 0.58670497 4292140506
0.040618133 0.053324837 0.587017 4292600287
0.042317804 0.053443518 0.58832347 4292666082
0.043992996 0.053523716 0.58920634 4292731875
0.045624722 0.053547233 0.5894652 4292666082
0.047441743 0.053779189 0.59201866 4292600289
0.049409971 0.054161582 0.59622818 4292402910
0.010274863 0.05582729 0.59660017 4290626495
0.01190854 0.055835556 0.59668851 4290429116
0.013594341 0.056056764 0.59905249 4290231737
0.015289648 0.056265365 0.6012817 4290363577
0.026804077 0.056268282 0.60131288 4290955462
0.028307278 0.055988211 0.59831989 4291087048
0.02977076 0.055664487 0.59486037 4291481808
0.03136763 0.055610795 0.59428662 4291416785
0.032909989 0.055470515 0.5927875 4291679957
0.034544341 0.055491187 0.5930084 4291876566
0.036114398 0.055411354 0.59215528 4291942357
0.037617214 0.055239625 0.59032011 4291679185
0.039119791 0.05508171 0.58863252 4292205529
0.040827345 0.05521347 0.59004056 4292600289
0.042546023 0.055349689 0.59149629 4292600289
0.044332039 0.055560321 0.5937472 4292666852
0.045989525 0.055600673 0.59417844 4292469473
0.047813762 0.055832982 0.59666103 4292601059
0.049626216 0.056036659 0.59883761 4292534496
0.010287032 0.057527259 0.59730679 4290100151
0.011919033 0.057518352 0.59721428 4289903026
0.013594113 0.057694428 0.59904248 4289705647
0.015302945 0.057960451 0.60180461 4289574061
0.025274565 0.058178484 0.60406846 4290165946
0.026696594 0.057680868 0.59890169 4290560704
0.028133929 0.057271946 0.59465587 4290889671
0.029611874 0.056985881 0.59168565 4291087050
0.031253245 0.057027664 0.59211946 4291416015
0.032855902 0.056998175 0.59181327 4291613394
0.034482758 0.057011455 0.59195119 4291876566
0.035951741 0.056774244 0.58948821 4292073943
0.037425544 0.056564678 0.58731228 4291876564
0.038928919 0.056415223 0.58576047 4291613392
0.040603146 0.056515384 0.58680046 4292468703
0.042349078 0.05670394 0.58875823 4292600289
0.044096194 0.056880217 0.59058851 4292535012
0.045860238 0.057065092 0.59250808 4292600805
0.047492929 0.057079472 0.59265739 4292535012
0.04924719 0.057234198 0.59426391 4292731621
0.051108271 0.057499211 0.59701556 4292402656
0.028385513 0.059425235 0.5999735 4290823876
0.029824486 0.059025127 0.59593391 4290955462
0.031410094 0.058941651 0.5950911 4291284429
0.033048056 0.058959808 0.59527445 4291679187
0.034659233 0.05893071 0.59498066 4291679185
0.036100592 0.058628444 0.5919289 4291942357
0.037548669 0.058362558 0.58924443 4291942359
0.039076243 0.058237046 0.58797723 4291416015
0.040810838 0.058417786 0.58980203 4292534496
0.042613313 0.058678254 0.59243178 4292666082
0.044396266 0.058893744 0.59460741 4292600805
0.046133824 0.059035908 0.59604275 4292732391
0.047708195 0.058966663 0.59534365 4292535012
0.049486335 0.059145544 0.59714967 4292732645
0.051209353 0.059249211 0.59819633 4292272094
0.026867742 0.061348069 0.60274112 4290034360
0.028258983 0.060794167 0.5972991 4290363325
0.029675037 0.060351279 0.59294772 4290823876
0.031310596 0.060377572 0.59320605 4291087050
0.032909174 0.060333479 0.59277284 4291481808
0.034494527 0.060270414 0.59215325 4291547601
0.035895146 0.059904709 0.58856022 4291876566
0.0374211 0.059770595 0.58724254 4291942359
0.038969893 0.059682496 0.58637697 4292008152
0.040642031 0.059782796 0.58736241 4292271324
0.042399604 0.059996359 0.58946067 4292468703
0.044093903 0.060108028 0.59055781 4292535266
0.045805469 0.060234506 0.59180045 4292798438
0.047293779 0.060068782 0.59017223 4292995817
0.049148459 0.060363982 0.59307253 4292666852
0.050781794 0.060377147 0.59320188 4292535266
0.052762665 0.060789898 0.59725714 4292140508
0.028441781 0.062831827 0.60116285 4290231739
0.029892102 0.062426522 0.59728497 4290758083
0.031528074 0.062430844 0.59732634 4290823878
0.033113256 0.062339131 0.59644884 4291350222
0.034549356 0.06198854 0.59309447 4291613394
0.035989359 0.061676092 0.590105 4291744980
0.037585638 0.061646786 0.58982462 4291942359
0.039238933 0.061709557 0.59042519 4292139738
0.040902466 0.061782826 0.5911262 4291810773
0.042551514 0.061829485 0.59157264 4292469473
0.044182807 0.061847869 0.59174854 4292601059
0.045838401 0.061897762 0.59222591 4292732645
0.047425494 0.061854906 0.59181589 4292930024
0.049329873 0.062215049 0.59526163 4292535266
0.051043656 0.062319476 0.59626079 4292403680
0.028377531 0.06433057 0.59980482 4290034360
0.029870201 0.064013369 0.59684736 4290363325
0.031423394 0.063852035 0.59534305 4290823878
0.032939374 0.063634709 0.59331679 4291152843
0.034326829 0.063201159 0.58927447 4291547601
0.03582494 0.063001096 0.58740908 4291810773
0.037403725 0.062953986 0.58696985 4292008152
0.039056994 0.063030966 0.58768761 4292271324
0.040681578 0.063057385 0.58793396 4291679187
0.042283878 0.063048579 0.58785182 4292468701
0.043869499 0.063016452 0.58755231 4292206301
0.045520153 0.06307672 0.5881142 4292535012
0.04725109 0.063240319 0.58963954 4292731875
0.04919266 0.063665718 0.59360588 4292666082
0.051007308 0.063904919 0.59583616 4291876312
0.030101079 0.066153362 0.60146064 4290297532
0.031555586 0.065755971 0.59784758 4290626497
0.033064328 0.065505192 0.59556752 4291152843
0.03456426 0.065261334 0.59335035 4291350222
0.036134198 0.065165594 0.59247988 4291547601
0.037691154 0.065055661 0.59148043 4291942359
0.039237391 0.064937048 0.59040201 4292139738
0.040889941 0.064996801 0.59094524 4291876564
0.042467117 0.064936757 0.59039932 4291942359
0.044159051 0.065050155 0.59143037 4292271324
0.045893271 0.065215632 0.59293485 4292205531
0.047885161 0.065723464 0.597552 4291876312
0.02997026 0.067503922 0.59884667 4290363325
0.031441916 0.067148544 0.59569401 4290560704
0.032905232 0.066811256 0.59270185 4290692292
0.03450932 0.066778041 0.59240717 4291284429
0.03604579 0.066622838 0.5910303 4291481808
0.037591629 0.066497527 0.58991861 4291679185
0.039141949 0.066390127 0.58896589 4291942357
0.040832557 0.06651976 0.5901159 4292008148
0.042565975 0.066706635 0.59177369 4291613390
0.044313796 0.066901557 0.59350288 4289573809
0.046210594 0.067299664 0.59703463 4286152575
0.031631719 0.069193169 0.59929001 4290363327
0.033167038 0.068976983 0.59741759 4290560704
0.034813017 0.069000423 0.59762061 4291218634
0.036359437 0.068833292 0.59617305 4291547599
0.03802257 0.068891972 0.5966813 4290823874
0.03967471 0.068926722 0.5969823 4288323994
0.03321344 0.070709914 0.59825337 4288981924
0.03483123 0.07067208 0.59793329 4287139719
0.036473852 0.070685774 0.5980491 4284902757
