# .PCD v0.7 - Point Cloud Data file format
VERSION 0.7
FIELDS x y z rgba
SIZE 4 4 4 4
TYPE F F F U
COUNT 1 1 1 1
WIDTH 368
HEIGHT 1
VIEWPOINT 0 0 0 1 0 0 0
POINTS 368
DATA ascii
0.13280345 -0.11837602 0.62009007 4290494909
0.13120627 -0.11676794 0.62055826 4290429116
0.13268071 -0.11657201 0.61951697 4290494909
0.1361376 -0.11663 0.61982518 4290363577
0.12935926 -0.11324211 0.61984158 4290363325
0.1313262 -0.11347667 0.62112546 4290429118
0.13268346 -0.11318515 0.61952978 4290429116
0.13451645 -0.11330169 0.62016767 4290429116
0.13632578 -0.11339563 0.62068188 4290297784
0.12942454 -0.11160292 0.62015438 4290231739
0.13118708 -0.11165927 0.62046748 4290231739
0.1326887 -0.11149492 0.61955422 4290363323
0.13613322 -0.11154009 0.61980522 4290297530
0.13785441 -0.11156096 0.61992121 4290363323
0.13271154 -0.082699232 0.61966091 4292008417
0.13444573 -0.082723357 0.61984164 4291811038
0.13779977 -0.082701184 0.61967552 4291942624
0.13283113 -0.079380706 0.62021929 4291942624
0.13786177 -0.079346798 0.61995435 4291942624
0.13607138 -0.07590244 0.61952364 4292008417
0.13815209 -0.076115154 0.62125987 4291811551
0.13798983 -0.074328393 0.62053019 4291942622
0.025103379 0.023320265 0.59997708 4292666078
0.026708879 0.023289178 0.59917724 4292468699
0.021643566 0.024758361 0.59509635 4292534492
0.023133699 0.024611894 0.59157586 4292731871
0.024715604 0.024575835 0.59070915 4292731871
0.026349735 0.024592943 0.59112036 4292797664
0.028093645 0.024704611 0.59380442 4292534492
0.02991835 0.024871236 0.59780943 4292402908
0.018504573 0.026553487 0.59887016 4292402906
0.020004226 0.026370944 0.59475321 4292600285
0.021503629 0.026215559 0.59124875 4292797664
0.023088332 0.026178626 0.59041578 4292797664
0.024741234 0.026218794 0.59132171 4292863457
0.026461942 0.026321478 0.59363759 4292731871
0.028221723 0.026448907 0.59651154 4292600285
0.030011751 0.026589205 0.59967571 4292337113
0.015182327 0.028106453 0.59706116 4292008148
0.016703768 0.027919695 0.59309387 4292205527
0.018217344 0.02775402 0.58957446 4292337113
0.019780315 0.027684422 0.58809602 4292534492
0.021370476 0.027660491 0.58758765 4292731871
0.023020538 0.027712014 0.58868212 4292863459
0.02469171 0.027780551 0.59013808 4292929250
0.026369153 0.027847297 0.59155595 4292863457
0.028053153 0.027912855 0.59294856 4292666078
0.029763486 0.027996011 0.59471506 4292600285
0.031582043 0.028167071 0.59834886 4292402906
0.013563517 0.029771157 0.59769416 4291810769
0.015127935 0.029633082 0.59492213 4292008148
0.016666913 0.029476834 0.59178525 4292008148
0.018249596 0.029418703 0.59061819 4292271320
0.019839291 0.029380413 0.58984947 4292468699
0.021501852 0.029447677 0.59119987 4292731873
0.023166509 0.029508198 0.59241492 4292797666
0.024853123 0.029586945 0.59399587 4292929252
0.026542827 0.029659482 0.59545213 4292929250
0.028192692 0.029681686 0.59589791 4292929250
0.029880557 0.029739285 0.5970543 4292600285
0.031621233 0.029840749 0.59909129 4292402906
0.010294354 0.031408045 0.59773189 4290823874
0.011857733 0.031219456 0.59414279 4291152839
0.013407712 0.031045301 0.59082842 4291416011
0.015000863 0.030997828 0.58992493 4291679953
0.016553523 0.030884027 0.5877592 4292073941
0.018166656 0.030893214 0.58793402 4292205270
0.019766796 0.030880608 0.58769411 4292402649
0.021414792 0.030939041 0.58880615 4292600287
0.023053244 0.030976471 0.58951849 4292731873
0.024708461 0.031030064 0.59053844 4292863459
0.026348356 0.031059016 0.59108943 4292995045
0.027957382 0.031050337 0.59092426 4292929252
0.029611303 0.031089744 0.59167421 4292863459
0.031317998 0.031177605 0.5933463 4292600287
0.033225089 0.031446476 0.59846324 4292600287
0.0087104775 0.03323818 0.60126156 4290363323
0.010301143 0.03306485 0.59812611 4290626495
0.011908644 0.032985669 0.59669375 4291021253
0.013494068 0.032871794 0.59463382 4291219402
0.015112748 0.032854721 0.59432495 4291744976
0.016681215 0.032742396 0.59229308 4291942355
0.018280877 0.032705773 0.59163058 4292337113
0.019855574 0.032634072 0.59033358 4292271320
0.021460168 0.032618605 0.59005374 4292534492
0.023086797 0.032636445 0.5903765 4292666080
0.024765549 0.032720823 0.59190285 4292863459
0.026432183 0.032779813 0.59296995 4292929252
0.028106814 0.032841332 0.59408277 4292995045
0.029745616 0.032856546 0.59435797 4292797666
0.031403657 0.032890331 0.59496915 4292666080
0.033208914 0.033067379 0.59817183 4292468701
0.0086667649 0.034707785 0.59824413 4290100405
0.010274923 0.034612611 0.59660369 4290100405
0.011878586 0.034530461 0.59518766 4290758335
0.013489168 0.034485802 0.59441793 4291218632
0.015074389 0.03439289 0.59281641 4291481804
0.016638407 0.034274343 0.59077311 4291810769
0.018196007 0.034164742 0.58888394 4292008148
0.019762946 0.03408907 0.58757961 4292271320
0.021322472 0.034012962 0.58626777 4292402906
0.022934375 0.034025203 0.58647877 4292534492
0.024582425 0.034085967 0.58752614 4292797666
0.026207065 0.034108806 0.58791977 4292732643
0.027900923 0.034213882 0.58973092 4292930022
0.02953475 0.03423788 0.59014457 4292863459
0.031210128 0.034305062 0.59130257 4292929252
0.032873388 0.034352962 0.59212822 4292666080
0.034886781 0.034745075 0.59888691 4292468701
0.0087168422 0.036554195 0.60170084 4289771440
0.010341504 0.036479395 0.60046959 4290231991
0.011963815 0.03641795 0.59945816 4290560702
0.013601035 0.036411226 0.59934747 4291021253
0.015185605 0.036280163 0.59719008 4291284425
0.016744224 0.036118578 0.59453034 4291744976
0.01831707 0.036013573 0.59280193 4292073941
0.019864772 0.03588023 0.59060705 4292139734
0.021434471 0.035803694 0.58934718 4292468699
0.023029093 0.035776578 0.58890086 4292600028
0.024711378 0.035880297 0.59060812 4292666080
0.026351372 0.035913646 0.59115708 4292797666
0.028084561 0.036062814 0.59361243 4292864229
0.029701954 0.036055103 0.59348553 4292995815
0.031413224 0.036156248 0.59515041 4292864229
0.033096012 0.036216259 0.59613824 4292535264
0.0087008057 0.038129788 0.60059392 4289639854
0.010322818 0.03805301 0.59938461 4290034612
0.011917545 0.037910495 0.59713978 4290297784
0.013557916 0.037930019 0.59744734 4290692288
0.015123771 0.037759308 0.59475839 4291152839
0.016680783 0.037601817 0.59227771 4291613390
0.018238634 0.037473939 0.59026349 4291810769
0.019796187 0.037366293 0.58856791 4292008148
0.021359086 0.037284177 0.58727449 4292271320
0.022939762 0.037242405 0.58661652 4292600285
0.024575736 0.037290007 0.58736628 4292469469
0.026186008 0.037295152 0.58744735 4292666850
0.027873654 0.037403535 0.58915454 4292798436
0.029506369 0.037430387 0.5895775 4292864229
0.031212915 0.03754326 0.59135538 4292798436
0.032887105 0.037608009 0.59237528 4292930022
0.034720659 0.037840366 0.59603518 4292535264
0.036583286 0.038082141 0.59984344 4292337885
0.010377502 0.039902814 0.6025598 4289771440
0.011971661 0.039723445 0.59985125 4290100151
0.013591606 0.03966257 0.59893197 4290757824
0.015151449 0.039458267 0.59584689 4291086789
0.016750352 0.03938549 0.5947479 4291350218
0.018329704 0.039283704 0.59321082 4291613390
0.019926168 0.039232157 0.59243244 4292008148
0.021511139 0.039167441 0.59145522 4292073941
0.023097211 0.039113645 0.59064281 4292140504
0.024741193 0.039158538 0.59132075 4292337883
0.026366448 0.039170094 0.59149528 4292469469
0.028093329 0.03932257 0.59379774 4292798436
0.029732911 0.039342858 0.59410411 4292864229
0.031373139 0.039361857 0.59439099 4292864229
0.033007417 0.039371885 0.59454244 4292864229
0.03472127 0.039471433 0.59604567 4292666850
0.036594171 0.039734747 0.6000219 4292337885
0.01038126 0.041566074 0.60277802 4289837233
0.011948058 0.041282702 0.59866863 4290034358
0.013534859 0.041128423 0.59643131 4290165944
0.015084667 0.040907018 0.59322059 4290758081
0.016695641 0.040878382 0.59280533 4291021253
0.018241536 0.040709578 0.59035736 4291416011
0.019855537 0.04070786 0.59033245 4291810769
0.021385267 0.04054663 0.58799434 4291942355
0.022940828 0.040453497 0.58664376 4292074711
0.024528144 0.04042488 0.58622879 4292272090
0.026194738 0.040522415 0.58764321 4292601055
0.027938817 0.04072161 0.59053189 4292666848
0.029590437 0.040771633 0.59125727 4292798436
0.031190852 0.040749572 0.59093738 4292864229
0.0328307 0.04077867 0.59135932 4292798436
0.03447561 0.040811021 0.59182847 4292798434
0.036285371 0.041026868 0.5949586 4292666080
0.038131993 0.041264068 0.59839845 4292468701
0.013648581 0.043119147 0.60144264 4290231737
0.015203896 0.042865839 0.59790939 4290626495
0.016795529 0.042754184 0.59635198 4290823874
0.018356912 0.042592112 0.59409136 4291350218
0.019968981 0.042564437 0.5937053 4291613390
0.021476151 0.042334151 0.5904932 4291810769
0.02301562 0.042195294 0.58855635 4292008148
0.024630969 0.042204615 0.58868635 4292271320
0.026330218 0.042347722 0.59068251 4292402906
0.028072812 0.042539973 0.59336406 4292731871
0.029713564 0.042565312 0.59371752 4292863457
0.031350646 0.042583041 0.59396482 4292930020
0.033067543 0.042702097 0.59562546 4292930020
0.034740422 0.04275579 0.59637439 4292864227
0.036469862 0.042871162 0.59798366 4292666078
0.038193591 0.042970203 0.59936512 4292468699
0.012040987 0.0449044 0.60332489 4289705393
0.013624576 0.044685576 0.60038483 4289902772
0.015165801 0.044389833 0.59641129 4290231737
0.016753875 0.044275336 0.59487295 4290626749
0.018283764 0.044040971 0.59172404 4290889921
0.019869015 0.043967221 0.59073317 4291218886
0.021327773 0.043645713 0.5864135 4291810769
0.022888869 0.043563958 0.58531505 4291942355
0.024514055 0.043606907 0.58589208 4292205527
0.026224418 0.043786798 0.58830905 4292402906
0.027858784 0.043826334 0.58884025 4292666078
0.029472053 0.043830171 0.5888918 4292731871
0.031120436 0.043883126 0.5896033 4292864227
0.032937016 0.044156358 0.59327435 4292930020
0.034616813 0.044229154 0.59425247 4292930020
0.036297876 0.044296976 0.5951637 4292863457
0.037842475 0.044199578 0.59385508 4292666078
0.03977387 0.044543386 0.59847438 4292337113
0.015296572 0.04641806 0.60155398 4290034358
0.016868101 0.04621549 0.59892875 4290494909
0.018405914 0.045964587 0.5956772 4291021253
0.019948944 0.045766462 0.59310961 4291284425
0.021458641 0.045527425 0.59001178 4291547597
0.023042474 0.045468107 0.58924305 4291744976
0.024681982 0.045519229 0.58990556 4292139734
0.026299596 0.045526173 0.58999556 4292337113
0.027935334 0.045561876 0.59045827 4292402906
0.029542323 0.045549348 0.59029591 4292534492
0.031205975 0.045620956 0.5912239 4292797664
0.032962371 0.045814417 0.59373105 4293060836
0.034659509 0.045911208 0.59498543 4292995813
0.036384355 0.046034377 0.59658164 4292995043
0.037927963 0.04592751 0.59519666 4292731871
0.039786875 0.046195529 0.59867007 4292402908
0.015262677 0.047957025 0.60022104 4289771440
0.016812501 0.047696039 0.59695458 4290231737
0.018328771 0.047394499 0.5931806 4290626495
0.019850815 0.047155719 0.59019208 4290955460
0.021394931 0.047001354 0.58826005 4291416011
0.023005068 0.047003467 0.58828652 4291613390
0.02461791 0.047010478 0.58837426 4291942355
0.026212092 0.046983175 0.58803254 4292139734
0.027803846 0.04695493 0.58767903 4292402906
0.029410135 0.046952978 0.58765459 4292534492
0.031029727 0.046971366 0.58788472 4292731871
0.032753751 0.047138236 0.58997327 4292929250
0.034402702 0.047186472 0.59057695 4293126629
0.036082115 0.047270283 0.59162593 4292995043
0.037594367 0.047137305 0.58996159 4292863457
0.039387926 0.047353473 0.5926671 4292666078
0.041252803 0.047634892 0.59618932 4292337115
0.016941201 0.049706534 0.60152429 4289968565
0.018482815 0.049429022 0.59816599 4290429116
0.020021943 0.04919054 0.59527999 4290823874
0.021590414 0.0490546 0.5936349 4291087046
0.02314857 0.048915878 0.59195614 4291481804
0.024702577 0.048787102 0.59039778 4291942355
0.026288303 0.048732929 0.58974218 4292073941
0.027939344 0.048799105 0.59054303 4292139734
0.029598041 0.048870683 0.59140921 4292271320
0.031204524 0.048853099 0.59119642 4292534492
0.032876667 0.048934978 0.59218729 4292666078
0.034512561 0.048957746 0.59246284 4292995045
0.036183238 0.049025606 0.59328401 4293060838
0.037748285 0.048950654 0.59237701 4293060838
0.039471425 0.04907845 0.59392351 4292534494
0.041383281 0.049421508 0.59807503 4292402908
0.01686804 0.051130157 0.5989266 4289968565
0.018420512 0.050893087 0.59614962 4290034358
0.020023469 0.05082272 0.59532535 4290494909
0.021603646 0.050709467 0.59399873 4290955460
0.02316748 0.050576374 0.59243971 4291481804
0.024649581 0.050293926 0.58913118 4291679183
0.026260467 0.050292779 0.58911777 4291876562
0.027855895 0.050263878 0.58877921 4292139734
0.029546624 0.050400697 0.59038186 4292337113
0.031078031 0.050265644 0.58879989 4292402906
0.032743394 0.050349891 0.58978677 4292666078
0.034308191 0.050278842 0.58895451 4292797666
0.035979513 0.05036328 0.58994359 4292995045
0.037524391 0.050271071 0.58886349 4292995045
0.039225623 0.050387297 0.59022492 4292929252
0.04104507 0.050640181 0.59318715 4292666080
0.043049522 0.051093414 0.5984962 4292534492
0.018608414 0.053059548 0.60223079 4290100151
0.020220177 0.05296642 0.60117376 4290429116
0.021792894 0.052792709 0.59920216 4290823874
0.023313491 0.052525874 0.59617352 4291350218
0.024835287 0.052296452 0.59356958 4291679183
0.026418403 0.052216388 0.59266084 4291810769
0.028031794 0.052201964 0.59249711 4292139734
0.029687155 0.052262995 0.59318984 4292402906
0.031218242 0.052110262 0.59145629 4292402906
0.03283095 0.052102115 0.59136385 4292600285
0.03443208 0.052077219 0.59108126 4292731873
0.036179591 0.05226602 0.59322417 4292863459
0.037876915 0.052369226 0.59439558 4293060838
0.039531689 0.052407525 0.59483027 4293192422
0.041288354 0.052572533 0.59670311 4292666080
0.043093126 0.052783921 0.59910238 4292468699
0.018570697 0.054595981 0.60101014 4289902772
0.020182764 0.054509796 0.60006142 4290363577
0.021758232 0.054345168 0.59824914 4290626749
0.023260616 0.05403379 0.59482139 4291021507
0.024782619 0.053805728 0.59231079 4291482058
0.026344648 0.053687219 0.59100622 4291679183
0.027930247 0.053627677 0.59035075 4291876562
0.029500224 0.05354628 0.58945471 4292073941
0.031021118 0.053388849 0.58772165 4292139734
0.032615814 0.053367686 0.58748871 4292468699
0.034243908 0.053400595 0.58785099 4292666078
0.035957586 0.053558029 0.58958405 4292863459
0.037650086 0.053671755 0.59083599 4293126631
0.039312612 0.053735148 0.59153384 4293258217
0.040997893 0.0538234 0.59250534 4292929252
0.042790778 0.054040842 0.594899 4292337113
0.020295549 0.056464959 0.60341465 4289837233
0.021862684 0.056250334 0.60112107 4290429370
0.023353087 0.055882115 0.59718609 4290758335
0.024941843 0.055782009 0.5961163 4291153093
0.026500689 0.055631399 0.5945068 4291481804
0.028073056 0.055524953 0.59336925 4291876562
0.029589858 0.055326242 0.59124571 4292073941
0.031146968 0.055219587 0.59010595 4292139734
0.032768082 0.055231329 0.59023142 4292337113
0.034460299 0.055356182 0.59156567 4292600285
0.036086205 0.055368096 0.59169298 4292863459
0.037767973 0.055461012 0.59268594 4292929252
0.039389778 0.055461854 0.59269494 4293126633
0.041214194 0.055736631 0.59563136 4292666080
0.020218626 0.057895251 0.60112762 4289771440
0.021759832 0.057622254 0.59829313 4290231990
0.023273461 0.057319526 0.59514987 4290429370
0.02480896 0.05710673 0.59294039 4291087300
0.026365863 0.056966286 0.59148216 4291218632
0.027906029 0.056808017 0.58983886 4291613390
0.029427269 0.056630623 0.58799696 4291876562
0.030952107 0.05647818 0.58641416 4292008148
0.032567713 0.056498226 0.5866223 4292205527
0.034220774 0.056578312 0.58745384 4292402906
0.03585925 0.056628186 0.58797169 4292468699
0.037519656 0.05670692 0.58878917 4292600287
0.039238147 0.056863349 0.59041339 4292139736
0.041138012 0.057259858 0.59453034 4289244842
0.021905372 0.059655145 0.60229474 4289903026
0.023458488 0.059416112 0.59988141 4290429370
0.025014078 0.05921419 0.59784275 4290758335
0.026578555 0.059056796 0.59625363 4291218632
0.02808151 0.058788806 0.59354794 4291613392
0.02964334 0.058666624 0.59231436 4291810771
0.031118225 0.058393952 0.5895614 4291744976
0.032727946 0.05838871 0.58950847 4292139734
0.034360398 0.058422603 0.58985066 4292271320
0.036125813 0.058669403 0.59234244 4292073941
0.03788387 0.05888357 0.59450471 4290494909
0.039702196 0.059169933 0.5973959 4287007880
0.021868115 0.061198372 0.60127038 4289705647
0.023408657 0.060927302 0.59860712 4290297784
0.024917044 0.060613453 0.5955236 4290626495
0.026456231 0.060408451 0.59350944 4290955460
0.027912533 0.060048841 0.58997631 4291218632
0.029485196 0.05996519 0.58915442 4291547597
0.030954884 0.059691638 0.58646679 4291942355
0.032581802 0.059733298 0.58687609 4291679183
0.03425293 0.059848286 0.58800584 4291218886
0.036243465 0.060486011 0.59427148 4287271306
0.025135247 0.062787496 0.6007387 4290363323
0.026702205 0.062608644 0.59902751 4290758081
0.028168151 0.062227339 0.59537923 4291021253
0.029747624 0.062124792 0.59439808 4291152839
0.03129809 0.061975434 0.59296906 4290495163
0.033055663 0.062230702 0.59541142 4287731857
0.028178193 0.063878678 0.59559149 4289639854
0.029812956 0.063890696 0.59570354 4286613376
