# .PCD v0.7 - Point Cloud Data file format
VERSION 0.7
FIELDS x y z rgba
SIZE 4 4 4 4
TYPE F F F U
COUNT 1 1 1 1
WIDTH 1015
HEIGHT 1
VIEWPOINT 0 0 0 1 0 0 0
POINTS 1015
DATA ascii
-0.063180842 -0.061727181 0.58175409 4287760679
-0.0027833197 -0.063367784 0.59721613 4294835967
-0.0011488798 -0.063321419 0.59677917 4294835967
0.00048352641 -0.063321754 0.59678233 4294178041
0.0021135013 -0.063248821 0.59609491 4293782770
0.0037387651 -0.063159823 0.59525615 4293388011
0.0053598704 -0.063075885 0.59446508 4293453804
0.0069827707 -0.063047238 0.59419507 4294966783
0.0086192861 -0.063129127 0.59496683 4293716199
0.010244428 -0.063114926 0.59483302 4289044894
0.011880406 -0.06316223 0.59527886 4289570980
0.013524618 -0.063236631 0.59598005 4289768359
0.015181732 -0.063348867 0.59703779 4289702566
0.016818967 -0.063364394 0.59718418 4289439394
0.018442916 -0.063331559 0.59687471 4288978843
0.020061035 -0.063285671 0.59644222 4288847257
0.021709817 -0.063336149 0.59691793 4288518292
0.023329224 -0.06329985 0.59657586 4288386706
-0.097900651 -0.05995895 0.58004248 4288090160
-0.096326225 -0.059966546 0.58011597 4287957545
-0.094535097 -0.059837226 0.57886493 4288089131
-0.093074255 -0.059916124 0.57962817 4288023340
-0.091478355 -0.059909306 0.57956225 4287957547
-0.090029128 -0.059999999 0.58043957 4288220206
-0.088494875 -0.060036261 0.5807904 4288351792
-0.08683417 -0.059986498 0.58030897 4288022827
-0.085405678 -0.060098283 0.58139038 4288219434
-0.083607726 -0.059949402 0.57995009 4288153641
-0.082153507 -0.060045984 0.58088446 4288219436
-0.080452174 -0.059962209 0.58007401 4288285229
-0.078995682 -0.060061216 0.5810318 4287891241
-0.077298835 -0.059977785 0.58022469 4287759655
-0.075659007 -0.059936035 0.57982081 4287957035
-0.074243568 -0.060074061 0.58115608 4287957035
-0.072737828 -0.060143452 0.58182734 4288088620
-0.071187489 -0.060178258 0.58216405 4288351792
-0.069639266 -0.060216475 0.58253378 4288154413
-0.068020463 -0.06019403 0.58231664 4288088620
-0.0663056 -0.060083464 0.58124703 4288023340
-0.06459213 -0.059968751 0.58013731 4288220717
-0.062968202 -0.059933491 0.5797962 4288089644
-0.0060118483 -0.061339643 0.59339929 4294835967
-0.0043877168 -0.061326038 0.59326768 4294835967
-0.0027675552 -0.061384529 0.59383351 4294835967
-0.0011433508 -0.061392143 0.59390718 4294243833
0.00048184633 -0.061475001 0.59470874 4293585904
0.0021083804 -0.061468992 0.59465063 4292993253
0.0037309609 -0.061403148 0.59401363 4294637819
0.0053384863 -0.061204646 0.59209335 4294966782
0.0069554746 -0.061181802 0.59187233 4288715931
0.0086010704 -0.061371699 0.59370941 4288978843
0.010236387 -0.061439585 0.59436613 4289307808
0.011849951 -0.061376192 0.59375286 4289373601
0.013482288 -0.061413597 0.59411472 4289570980
0.015119886 -0.061464339 0.59460562 4289242013
0.016776703 -0.061575763 0.59568352 4288847255
0.018357471 -0.06141305 0.59410942 4288715923
0.019989669 -0.061434858 0.59432042 4288518544
0.021622047 -0.061453905 0.59450465 4288321165
0.023348499 -0.061718952 0.59706873 4288255372
-0.097753204 -0.058284417 0.57916892 4288090161
-0.096495986 -0.058482606 0.58113831 4287761706
-0.094681896 -0.058344286 0.57976383 4287564327
-0.09332861 -0.058490045 0.58121222 4287695913
-0.091580048 -0.058388837 0.58020651 4287761706
-0.090145238 -0.05848762 0.58118814 4287695913
-0.088595547 -0.058514085 0.58145112 4287761706
-0.087190866 -0.058639035 0.58269274 4287826986
-0.085532255 -0.058594692 0.58225209 4287892779
-0.083678767 -0.058412626 0.58044291 4287761195
-0.082100645 -0.058419444 0.58051068 4287761708
-0.080713309 -0.058564983 0.58195686 4287892782
-0.079232126 -0.058646906 0.58277094 4288024367
-0.077586733 -0.058608145 0.58238578 4287892012
-0.075936675 -0.058564167 0.58194876 4287695403
-0.074521571 -0.058703385 0.58333218 4287564844
-0.072944298 -0.058718152 0.58347893 4287695660
-0.071290605 -0.058670696 0.58300734 4287564844
-0.069628865 -0.058614288 0.58244681 4287696430
-0.068015426 -0.058596849 0.58227354 4287892782
-0.066255957 -0.058449753 0.58081186 4287957804
-0.064609133 -0.058397241 0.58029002 4288089644
-0.063010871 -0.058387086 0.58018911 4287958058
-0.0076649804 -0.059950922 0.59572887 4294836222
-0.0060118474 -0.059716474 0.59339917 4294835967
-0.0043866797 -0.059689134 0.59312749 4294704383
-0.0027755369 -0.05993253 0.59554613 4293651696
-0.0011479227 -0.060006585 0.59628201 4293191145
0.00048398197 -0.060113519 0.59734458 4293388265
0.0021182413 -0.060122292 0.59743178 4294966782
0.0037446674 -0.05999792 0.59619588 4291479237
0.0053615444 -0.059842426 0.59465075 4288649879
0.0069883307 -0.059844181 0.59466821 4289307808
0.008652308 -0.060103621 0.59724623 4289373601
0.010284612 -0.060095571 0.59716624 4289505187
0.011899926 -0.060004059 0.59625691 4289439394
0.013523629 -0.059971813 0.59593648 4289176220
0.015177064 -0.060064171 0.59685421 4288715923
0.016843744 -0.060185906 0.59806389 4288715923
0.018449765 -0.060088541 0.59709638 4288518544
0.020092987 -0.06011831 0.5973922 4288255372
-0.096070237 -0.05664197 0.5785743 4287499564
-0.094653845 -0.056741606 0.57959205 4287433770
-0.093302011 -0.056884002 0.58104658 4287499304
-0.091565616 -0.056792811 0.58011508 4287432741
-0.089900814 -0.056743588 0.57961231 4287827499
-0.08826232 -0.056709506 0.57926416 4287761195
-0.086853668 -0.056824546 0.58043927 4287630120
-0.085194089 -0.056776654 0.57995003 4287432741
-0.080474325 -0.05680443 0.58023375 4287366950
-0.078993782 -0.056881189 0.58101785 4287498536
-0.077340707 -0.056834318 0.58053905 4287629609
-0.075732023 -0.056818783 0.58038038 4287564843
-0.074363686 -0.056986775 0.58209634 4287499050
-0.072638705 -0.056882817 0.58103448 4287301671
-0.070961066 -0.056812126 0.58031237 4287564844
-0.067669891 -0.056714524 0.57931542 4287301672
-0.012552348 -0.058315698 0.59567076 4294836222
-0.010957285 -0.058498867 0.59754175 4294836222
-0.0093060546 -0.058393821 0.59646875 4294835967
-0.0076390849 -0.058124356 0.59371626 4294901759
-0.0059938557 -0.057919458 0.59162331 4294441212
-0.0043685832 -0.057827171 0.59068066 4293980661
-0.0027577176 -0.057929184 0.59172267 4293520110
0.00048212698 -0.058255427 0.5950551 4294900989
0.0021138764 -0.05836758 0.5962007 4288321171
0.0037477228 -0.058414727 0.59668231 4288847257
0.0053560464 -0.058156144 0.59404099 4288978843
0.0069818371 -0.058163453 0.59411561 4289110429
0.0086208489 -0.058257345 0.59507471 4289307808
0.010268524 -0.058370654 0.59623212 4289242015
0.011888335 -0.058316231 0.59567618 4288913048
0.013533242 -0.058383182 0.59636009 4288715669
0.015168581 -0.058398899 0.5965206 4288584337
-0.014201205 -0.056764215 0.59648919 4294836222
-0.012542624 -0.056642413 0.5952093 4294836222
-0.010939093 -0.056769971 0.59654969 4294835967
-0.009298156 -0.056714088 0.59596246 4294704383
-0.007654631 -0.056615312 0.59492451 4294243833
-0.0060253008 -0.056596525 0.5947271 4293849075
-0.0043928223 -0.056523338 0.59395802 4293519597
-0.0027715696 -0.056593463 0.59469491 4294967295
-0.0011448736 -0.056593768 0.59469813 4294966782
0.00048346701 -0.056785133 0.59670901 4288650136
0.0021189214 -0.056872167 0.59762359 4288913050
0.0053794035 -0.05677776 0.59663153 4289109659
0.0069990116 -0.056677412 0.59557706 4289175452
0.0086183753 -0.056613356 0.59490395 4288978843
0.010261014 -0.056698252 0.59579605 4288913050
0.01191512 -0.056814559 0.59701824 4288453010
-0.01580048 -0.055020008 0.59527099 4294836222
-0.014112259 -0.054787297 0.59275323 4294835967
-0.012501883 -0.05483561 0.59327596 4294835967
-0.010862516 -0.054752212 0.59237367 4294638591
-0.0092337439 -0.054702334 0.59183401 4294112247
-0.0075998185 -0.054594234 0.59066445 4293848562
-0.0059958301 -0.054700874 0.59181821 4294111734
-0.0043774219 -0.05470619 0.59187573 4294835198
-0.0027609984 -0.054757111 0.59242666 4289242791
-0.0011402101 -0.05474316 0.59227574 4288847517
0.00048201779 -0.054987598 0.59492034 4288913051
0.0021124489 -0.055068724 0.59579808 4289044636
0.0037461617 -0.055127479 0.59643376 4288978843
0.005360161 -0.054948498 0.59449732 4288913050
0.0069679115 -0.054803692 0.59293061 4288913050
0.0085955709 -0.054840591 0.59332985 4288913050
0.010248151 -0.054999504 0.59504914 4288649878
0.01191071 -0.055161081 0.59679729 4288255118
-0.019104168 -0.053523771 0.59674317 4294836222
-0.015822746 -0.053466968 0.59610987 4294835967
-0.01417047 -0.053385198 0.59519821 4294835967
-0.012538393 -0.053368181 0.59500849 4294440699
-0.010882732 -0.05323074 0.59347612 4294045941
-0.0092385709 -0.053111199 0.59214336 4293651183
-0.0076178671 -0.053104367 0.59206718 4294900991
-0.0060137906 -0.053241041 0.59359097 4294967039
-0.0043965029 -0.053318597 0.59445566 4288913312
-0.0027720139 -0.053348605 0.59479022 4291150274
-0.0011459112 -0.053388689 0.59523714 4289900207
0.00048292486 -0.053460691 0.59603989 4289702826
0.0021145991 -0.053493399 0.59640455 4289110689
0.0037450164 -0.053479664 0.59625143 4289242016
0.0053706728 -0.053426903 0.59566319 4288913051
0.0069775749 -0.053255565 0.59375292 4288715672
0.0086272191 -0.053413559 0.59551442 4288518292
-0.020708155 -0.05182061 0.59592831 4294836222
-0.01902801 -0.051684603 0.59436429 4294835967
-0.017411008 -0.051710732 0.59466475 4294835967
-0.015768737 -0.051659457 0.59407508 4294770175
-0.014166713 -0.051743403 0.59504044 4294309113
-0.01254555 -0.051770162 0.59534818 4293716976
-0.010876113 -0.051575981 0.59311515 4293914096
-0.0092157349 -0.051364202 0.59067971 4294966782
-0.0076104356 -0.051434629 0.59148961 4292597718
-0.0060012299 -0.051509552 0.5923512 4288913310
-0.0043868441 -0.051578987 0.59314972 4289176482
-0.0027596562 -0.051491067 0.59213865 4291216581
-0.0011409163 -0.051534887 0.59264255 4291545548
0.00048187372 -0.051717497 0.59474254 4291413962
0.0021076272 -0.051691025 0.59443814 4291216583
0.0037370792 -0.051738821 0.59498775 4290953409
0.0053601759 -0.051696319 0.59449899 4290492858
0.0069785598 -0.05163873 0.59383672 4290032307
0.0086446209 -0.051889073 0.59671563 4289308068
-0.022301992 -0.050109107 0.59496152 4294836222
-0.020728791 -0.05024055 0.59652215 4294836222
-0.019067969 -0.050163932 0.59561247 4294835967
-0.01744812 -0.05019087 0.5959323 4294638591
-0.015766274 -0.05002664 0.59398234 4294046454
-0.014176361 -0.050149888 0.59544569 4293848816
-0.012566358 -0.050224837 0.59633559 4294966782
-0.010946546 -0.050277099 0.59695613 4294901243
-0.0093004499 -0.050205793 0.59610951 4288584598
-0.0076876404 -0.050322063 0.59749001 4289045149
-0.0060357959 -0.050176613 0.59576303 4289110687
-0.0044035641 -0.050146919 0.59541047 4290821307
-0.0027652679 -0.049972769 0.59334272 4291545548
-0.0011427697 -0.049994886 0.59360534 4292137944
0.00048172328 -0.050075028 0.59455687 4291808979
0.0021072689 -0.050056517 0.59433711 4292401117
0.0037429896 -0.050190568 0.59592873 4292335323
0.0053767217 -0.05022471 0.5963341 4292006612
0.007007096 -0.050218891 0.59626502 4291546059
-0.023909468 -0.048441246 0.59446537 4294835967
-0.022226399 -0.048317343 0.59294486 4294835967
-0.020640319 -0.048401378 0.59397614 4294835967
-0.019026756 -0.048429817 0.59432513 4294441212
-0.01738243 -0.048377953 0.59368867 4294046454
-0.015713872 -0.048241008 0.59200811 4293783023
-0.01409294 -0.048235603 0.59194177 4294966780
-0.012515231 -0.048395939 0.59390938 4292334544
-0.010914815 -0.048503201 0.59522569 4289110429
-0.0092994533 -0.048570015 0.59604561 4289242013
-0.0076786573 -0.048630822 0.59679186 4288979356
-0.0060226768 -0.048441466 0.59446812 4288914080
-0.0043888162 -0.048355762 0.59341633 4290887870
-0.0027600157 -0.048257932 0.59221578 4291809233
-0.0011420441 -0.048340447 0.5932284 4292467422
0.00048129557 -0.048405681 0.59402895 4292270044
0.0021030346 -0.048333477 0.59314287 4292270044
0.0037322424 -0.048421059 0.59421766 4292532962
0.0053650583 -0.04848811 0.5950405 4292599009
0.0069901934 -0.048470687 0.5948267 4292533216
0.0086343912 -0.048567072 0.59600949 4291940566
-0.025548164 -0.046838306 0.59475917 4294836222
-0.023899917 -0.046796471 0.59422791 4294835967
-0.022256633 -0.046758946 0.59375143 4294770175
-0.020654337 -0.04680841 0.59437954 4294441212
-0.019029737 -0.046811458 0.59441823 4294111988
-0.017420772 -0.046857134 0.59499824 4294967295
-0.015745942 -0.046716806 0.5932163 4294967037
-0.014107389 -0.046664227 0.59254867 4290952891
-0.012506271 -0.046737898 0.59348416 4289110429
-0.010938581 -0.046977118 0.59652179 4289307806
-0.0060394523 -0.046945784 0.59612393 4288979873
-0.0043923045 -0.046769701 0.59388798 4290821823
-0.0027673764 -0.046762392 0.59379518 4292269530
-0.0011453241 -0.046851933 0.5949322 4292861668
0.00048218638 -0.046867386 0.59512842 4292401630
0.0021056579 -0.046769287 0.59388274 4292138458
0.0037324566 -0.046798348 0.59425175 4292730595
0.0053709075 -0.046911553 0.59568924 4292796388
0.0069975308 -0.046892796 0.59545106 4292796388
0.0086275069 -0.046899348 0.59553427 4292467423
0.010260899 -0.046919439 0.59578937 4292072664
-0.028889079 -0.045348246 0.59655899 4294836222
-0.027149618 -0.04516913 0.5942027 4294835967
-0.025475327 -0.045082536 0.59306353 4294835967
-0.023821756 -0.045023318 0.59228456 4294704383
-0.022227053 -0.045074843 0.59296232 4294375419
-0.020609709 -0.045084946 0.59309524 4294375160
-0.019029191 -0.045184217 0.59440118 4294967039
-0.01742585 -0.04524279 0.59517169 4294110957
-0.015743542 -0.045087278 0.59312594 4289176222
-0.014090753 -0.044990283 0.59184992 4289439392
-0.012470022 -0.044983748 0.59176397 4289307806
-0.010904781 -0.045205299 0.59467852 4289110681
-0.0092930784 -0.045278162 0.59563702 4289109913
-0.0076698926 -0.045314167 0.59611064 4288847770
-0.0060194978 -0.045165449 0.5941543 4289176484
-0.0043848664 -0.045068759 0.59288234 4291413960
-0.002766974 -0.045131586 0.59370881 4292466909
-0.0011447828 -0.045203209 0.59465098 4292862181
0.00048134985 -0.045161016 0.59409595 4292862181
0.0021003648 -0.04503132 0.59238982 4292730595
0.0037252551 -0.045085702 0.5931052 4292006872
0.0053705187 -0.045278851 0.59564608 4292862181
0.0069980649 -0.045267481 0.59549654 4292730595
0.00861983 -0.045230072 0.59500438 4292599009
0.010235402 -0.045177203 0.59430891 4292401630
0.011899253 -0.045322724 0.59622324 4291743699
-0.03043719 -0.043596573 0.5949232 4294835967
-0.028890803 -0.043719057 0.59659463 4294835967
-0.027206121 -0.0436344 0.59543937 4294835967
-0.025530221 -0.043553945 0.59434146 4294638589
-0.023856029 -0.043465659 0.59313673 4294375160
-0.022272618 -0.043541957 0.5941779 4294704125
-0.020651834 -0.04355146 0.59430754 4294967039
-0.019038871 -0.04358048 0.59470356 4289505445
-0.017413907 -0.043584891 0.59476376 4289176222
-0.015729221 -0.043425325 0.59258634 4289242013
-0.014096177 -0.043388058 0.59207773 4289439646
-0.012485078 -0.04341742 0.59247845 4289373853
-0.010937274 -0.043708496 0.59645051 4288979095
-0.0093277749 -0.04381185 0.59786087 4288781462
-0.006047328 -0.043741532 0.5969013 4289374631
-0.0044122036 -0.043717884 0.5965786 4291875024
-0.0027832182 -0.043763004 0.59719431 4292664802
-0.0011488112 -0.043729968 0.59674352 4292928488
0.00048222893 -0.04361546 0.59518093 4292862695
0.0021054794 -0.043516636 0.59383237 4292665316
0.0037299127 -0.04351769 0.59384674 4292467423
0.0053662616 -0.04361495 0.59517395 4292204251
0.006993026 -0.043607168 0.59506774 4292599009
0.0086200554 -0.043603662 0.59501994 4292599009
0.010248081 -0.043605506 0.59504509 4292270044
0.01190041 -0.043696087 0.59628117 4291875285
-0.028837973 -0.042010196 0.59550369 4294704383
-0.027157074 -0.04192993 0.59436589 4294507005
-0.025554705 -0.041968416 0.59491146 4294440953
-0.023853142 -0.04183815 0.5930649 4294967295
-0.022236178 -0.041848086 0.59320575 4294967036
-0.020566266 -0.041752096 0.5918451 4289044894
-0.018975165 -0.041813366 0.59271359 4289176222
-0.017336726 -0.041772034 0.59212768 4289570980
-0.015669588 -0.041645899 0.59033972 4289570978
-0.01404161 -0.041606821 0.58978575 4289308060
-0.012456157 -0.041699957 0.591106 4288979095
-0.010916838 -0.041998371 0.59533608 4288715921
-0.0093190316 -0.042136952 0.59730047 4288781716
-0.0076885759 -0.042155452 0.59756273 4288913050
-0.0060430863 -0.042079255 0.59648263 4289506215
-0.0044145896 -0.042108785 0.59690124 4292006097
-0.0027817502 -0.042107243 0.59687936 4292862181
-0.0011450832 -0.041961052 0.59480709 4292928488
0.00048071126 -0.041855283 0.59330779 4292796902
0.0020979857 -0.041743193 0.59171885 4292731109
0.0037217038 -0.041801106 0.59253979 4292730595
0.0053370134 -0.04175809 0.59193003 4292270044
0.0069665583 -0.041820552 0.59281546 4292401630
0.008604819 -0.041901875 0.59396821 4292467423
0.010252126 -0.041994415 0.59527999 4292204251
0.011891766 -0.042034492 0.59584808 4292072151
0.013527741 -0.04205351 0.59611768 4291874772
0.015184677 -0.042126589 0.5971536 4291414475
-0.030477349 -0.040395144 0.59570813 4294572028
-0.028949698 -0.04053773 0.5978108 4294177527
-0.027291704 -0.040503934 0.59731245 4294572539
-0.025611361 -0.040430561 0.59623039 4294967036
-0.023853974 -0.040217314 0.59308565 4291676614
-0.022193734 -0.040148675 0.59207344 4289373601
-0.02054874 -0.040098991 0.59134072 4289636771
-0.018950658 -0.040140174 0.59194809 4289636771
-0.017330399 -0.040137697 0.59191155 4289636771
-0.015707919 -0.040129036 0.59178382 4289044888
-0.014114135 -0.040200114 0.59283203 4288650128
-0.012507157 -0.040247191 0.59352624 4288715920
-0.010943477 -0.040468425 0.59678876 4288650381
-0.009328953 -0.040546246 0.59793639 4288715921
-0.0011473625 -0.04041433 0.59599102 4292993767
0.00048147936 -0.040296663 0.59425581 4292731109
0.0021014272 -0.040190451 0.59268951 4292599523
0.0037239396 -0.040204436 0.59289575 4292730595
0.0053347843 -0.040122185 0.59168279 4292533215
0.0069639175 -0.040183757 0.59259075 4291875285
0.0086051086 -0.040278517 0.59398818 4292401629
0.010264823 -0.040416107 0.59601724 4292335323
0.011889977 -0.040398557 0.59575844 4292137944
0.013488291 -0.040305033 0.59437925 4292072151
0.015110895 -0.040296409 0.59425205 4291808979
-0.03052601 -0.038827565 0.59665924 4294966780
-0.028873162 -0.038799655 0.59623033 4294966782
-0.027198315 -0.038737062 0.59526849 4294967293
-0.025563285 -0.038726825 0.59511119 4289242528
-0.023803903 -0.038513999 0.59184068 4289505700
-0.022120103 -0.038401321 0.59010917 4289702564
-0.020471657 -0.038337111 0.58912247 4289570978
-0.018917052 -0.038452681 0.59089839 4289373599
-0.017344732 -0.038550466 0.59240109 4288978841
-0.015755871 -0.038627859 0.59359038 4288847507
-0.014157214 -0.038696259 0.59464145 4288584334
-0.012522903 -0.038672309 0.59427345 4288715404
-0.010925704 -0.038772922 0.59581953 4288781195
-0.0093122125 -0.038840853 0.59686339 4288846992
-0.006053328 -0.038881857 0.59749353 4289242528
-0.00441335 -0.038832407 0.59673363 4291611852
-0.0027781196 -0.038791195 0.59610033 4292599008
-0.0011438723 -0.038666099 0.59417802 4292796388
0.00048073826 -0.038611639 0.59334111 4292665316
0.0020963149 -0.038475405 0.59124762 4292533730
0.0037187298 -0.038528681 0.59206629 4292730595
0.005335147 -0.038506344 0.59172302 4292467422
0.006967512 -0.038582716 0.59289664 4292138457
0.0086021889 -0.038640633 0.59378666 4292138457
0.010240873 -0.038695291 0.59462661 4292467422
0.01186159 -0.038676385 0.59433603 4292204251
0.013450648 -0.03857125 0.59272045 4292006872
0.015097225 -0.038635936 0.59371448 4292137945
-0.028864387 -0.037157457 0.59604913 4293124060
-0.02713087 -0.037016772 0.59379238 4289242273
-0.025501603 -0.03700947 0.59367526 4289703079
-0.023835676 -0.036944352 0.59263068 4289768359
-0.022172766 -0.036874741 0.59151405 4289505187
-0.020533143 -0.036835957 0.5908919 4289307806
-0.018950334 -0.036901169 0.59193796 4288978841
-0.017379511 -0.037004091 0.59358901 4288781716
-0.015816061 -0.03714554 0.59585798 4288650127
-0.014223669 -0.037243709 0.59743273 4288584588
-0.012585214 -0.037231099 0.59723043 4288583818
-0.0060573369 -0.037272166 0.59788924 4288716184
-0.0044165077 -0.037226744 0.59716058 4291545546
-0.0027851539 -0.03725474 0.5976097 4292532703
-0.0011493616 -0.037218567 0.59702945 4292796388
0.00048282347 -0.037149075 0.59591472 4292533216
0.0021092412 -0.037085406 0.5948934 4292533216
0.0037289346 -0.03701045 0.59369099 4292467423
0.0053492323 -0.036985155 0.5932852 4292467423
0.0069636819 -0.036940612 0.59257072 4292401630
0.0086111985 -0.037055183 0.59440857 4291809493
0.010237771 -0.037057549 0.59444648 4292401630
0.011864142 -0.037058637 0.59446394 4292401630
0.01344381 -0.036931165 0.59241915 4292270044
0.015095055 -0.037006594 0.59362912 4292467423
0.016759574 -0.03709675 0.59507537 4292533216
-0.025371024 -0.035204366 0.59063536 4289834665
-0.023759507 -0.035210416 0.59073687 4289702564
-0.022119187 -0.035171546 0.59008473 4289176220
-0.020508612 -0.035177577 0.59018594 4288979095
-0.018912744 -0.035212021 0.59076381 4288781714
-0.017356941 -0.035334468 0.59281814 4288715406
-0.015797952 -0.03547499 0.59517574 4288715402
-0.014200899 -0.035552509 0.59647632 4288781449
-0.0044160518 -0.035589617 0.59709889 4291281606
-0.0027837891 -0.035602607 0.5973168 4292269530
-0.001148302 -0.035552673 0.59647906 4292532702
0.00048238941 -0.035487104 0.59537899 4292270044
0.0021049655 -0.035386283 0.59368747 4292401630
0.0037190558 -0.035292748 0.5921182 4292401630
0.0053287158 -0.03522668 0.59100974 4292533216
0.0069292863 -0.035145264 0.58964384 4292533216
0.0085789002 -0.035296377 0.59217906 4292401630
0.010218824 -0.03536595 0.59334636 4292006872
0.011858361 -0.035415299 0.59417427 4292664802
0.013440437 -0.035301827 0.59227049 4292730595
0.015056836 -0.035293221 0.59212613 4292796388
0.01671711 -0.035379138 0.59356761 4292730595
-0.02543111 -0.033668317 0.59203416 4289307806
-0.023805479 -0.03365954 0.59187984 4289110427
-0.022196705 -0.03367506 0.59215271 4288913302
-0.02061634 -0.033739511 0.5932861 4288781714
-0.019025398 -0.033796187 0.59428269 4288715404
-0.017446833 -0.033887498 0.59588832 4288715404
0.00048407371 -0.033976752 0.59745783 4292270044
0.0021116002 -0.033868752 0.5955587 4292401630
0.0037290948 -0.03376399 0.5937165 4292401630
0.005335357 -0.033651948 0.59174633 4292533216
0.0069387178 -0.033578023 0.59044641 4292599009
0.0085834553 -0.033694439 0.59249353 4292796388
0.010231922 -0.033786189 0.59410685 4292467423
0.011875135 -0.033837818 0.59501475 4292599009
0.013470572 -0.033757277 0.59359848 4293191146
0.015065352 -0.033692591 0.59246105 4293191146
0.016698204 -0.033717345 0.59289628 4292927973
-0.023802666 -0.032036752 0.59180993 4288979346
-0.022251463 -0.032134388 0.59361351 4288716172
0.00048321372 -0.032285035 0.59639639 4292204251
0.0021067031 -0.03216492 0.59417754 4292270044
0.0037344946 -0.032186501 0.59457624 4292533216
0.0053366055 -0.032040805 0.59188479 4292599009
0.0069598919 -0.032060478 0.5922482 4292796388
0.0085777259 -0.032052346 0.592098 4292862695
0.010227147 -0.032146085 0.59382963 4293125867
0.011859588 -0.032168072 0.59423578 4292467423
0.013482056 -0.032160964 0.59410447 4293125352
0.015078751 -0.032100521 0.59298795 4293190632
0.01673669 -0.032169532 0.59426278 4292926952
0.00048394641 -0.030700156 0.59730071 4292138458
0.0021164652 -0.030681146 0.59693086 4292401630
0.0037503925 -0.030690217 0.59710735 4292664802
0.0053681443 -0.030601576 0.59538275 4292796902
0.0069933119 -0.030586636 0.59509206 4293060074
0.0086016282 -0.030517548 0.59374791 4293191660
0.010226953 -0.030521167 0.59381831 4293257453
0.011858262 -0.030539209 0.59416932 4293256425
0.013518123 -0.030617565 0.59569383 4292729052
0.00048348203 -0.029038437 0.59672755 4291941076
0.0021126987 -0.028996633 0.59586853 4292467422
0.0037467307 -0.029028548 0.59652436 4292927720
0.0053686178 -0.02897555 0.59543526 4293256939
0.0069957338 -0.028968878 0.59529817 4293191662
0.0086028632 -0.028897589 0.59383321 4293323248
0.010227305 -0.028897859 0.59383875 4293322732
0.011876129 -0.028957509 0.59506452 4293913328
0.0037483997 -0.027409045 0.59679008 4293059560
0.0053823334 -0.027416687 0.59695649 4293388525
0.0070057805 -0.027379788 0.59615308 4293256938
0.0086233737 -0.027338266 0.595249 4293322470
0.010271016 -0.027390063 0.59637678 4293716450
0.0037515594 -0.025798341 0.59729314 4293256938
0.0053746742 -0.025747109 0.59610701 4293322731
0.0070126192 -0.025774233 0.596735 4293388011
-0.11229038 -0.0061060386 0.58894163 4290690748
-0.11017592 -0.006078261 0.5862624 4290493110
-0.10867727 -0.0060841385 0.5868293 4290032044
-0.11875368 -0.0044958093 0.58903801 4292993764
-0.11667234 -0.0044777668 0.58667409 4293059811
-0.11512539 -0.0044800164 0.58696884 4292007121
-0.11367612 -0.004486185 0.58777702 4290493623
-0.11221607 -0.0044920989 0.58855188 4290624696
-0.1104681 -0.004486491 0.58781713 4290163630
-0.10915691 -0.0044987192 0.58941925 4289966251
-0.10771881 -0.0045060054 0.59037387 4289702564
-0.10662515 -0.0045281397 0.59327394 4289636771
-0.12372417 -0.0028877736 0.58969003 4293915383
-0.12192237 -0.002883309 0.58877838 4293520625
-0.12005039 -0.0028770431 0.58749884 4293257708
-0.11821122 -0.0028714039 0.58634734 4292994536
-0.11637952 -0.0028657939 0.58520174 4293191143
-0.11488857 -0.0028685348 0.58576143 4293717741
-0.11323541 -0.002867246 0.58549827 4289704366
-0.11174735 -0.0028701611 0.58609354 4290559416
-0.11022815 -0.0028723492 0.58654034 4290493109
-0.10917785 -0.002887001 0.58953232 4290032044
-0.10772076 -0.0028911745 0.59038454 4289768872
-0.10625801 -0.0028953205 0.59123117 4289636773
-0.10477466 -0.0028990249 0.59198761 4289570978
-0.12378775 -0.0012754162 0.58999306 4294113275
-0.12192306 -0.0012727976 0.58878171 4293718517
-0.12020109 -0.0012716185 0.58823633 4293389039
-0.11862335 -0.0012719542 0.58839154 4293126122
-0.11698993 -0.0012716937 0.58827108 4293257190
-0.11539517 -0.0012718521 0.58834434 4292336088
-0.11372951 -0.0012712225 0.58805311 4289901232
-0.1122271 -0.0012724258 0.5886097 4290756795
-0.11092773 -0.0012759995 0.59026289 4290493110
-0.10970457 -0.0012805685 0.59237647 4290098351
-0.10697404 -0.0012867051 0.5952152 4289571493
-0.12350939 0.00033766398 0.58866638 4294179068
-0.12148436 0.00033651493 0.58666319 4293850103
-0.11984345 0.00033641339 0.58648616 4293586931
-0.11835283 0.00033673664 0.58704972 4293191660
-0.11659346 0.00033629368 0.58627748 4293191915
-0.11488011 0.00033597296 0.58571833 4293784048
-0.11310081 0.00033544752 0.58480233 4289770161
-0.11169074 0.00033601787 0.58579665 4290756282
-0.11029512 0.00033664887 0.58689672 4290691002
-0.10910726 0.00033794204 0.58915114 4290295731
-0.10778967 0.00033886614 0.5907622 4289637800
-0.10652725 0.00033999444 0.59272921 4289506214
-0.10523351 0.00034105618 0.59458017 4289572007
-0.10382533 0.00034177446 0.59583241 4289703079
-0.12186176 0.0019472783 0.58848566 4293981689
-0.1203794 0.0019493407 0.58910894 4293718517
-0.1186298 0.0019470727 0.58842355 4293323759
-0.1170187 0.0019470468 0.58841574 4293191913
-0.11510356 0.0019418909 0.58685756 4293784050
-0.11344761 0.0019410237 0.58659548 4289704368
-0.11199101 0.0019435914 0.58737147 4291019456
-0.11047798 0.0019452401 0.5878697 4290821305
-0.10923566 0.0019517745 0.58984447 4290361524
-0.10806016 0.0019597167 0.59224468 4289835179
-0.10714627 0.0019727172 0.59617352 4289506214
-0.1216601 0.0035511099 0.58751184 4293981689
-0.12009189 0.0035522589 0.58770192 4293784310
-0.11836568 0.003548702 0.58711344 4293323759
-0.11686517 0.0035519074 0.58764374 4293126120
-0.11505667 0.0035457104 0.58661848 4293849843
-0.11321754 0.0035383808 0.58540589 4290559677
-0.11144467 0.0035329419 0.58450603 4290624698
-0.11001059 0.0035382409 0.5853827 4290756541
-0.10888255 0.0035536846 0.58793777 4290098352
-0.10773541 0.0035689587 0.59046483 4289835179
-0.10668985 0.0035881139 0.59363395 4289637800
-0.10548053 0.0036022691 0.59597582 4289637800
-0.12177116 0.0051628728 0.58804816 4293981689
-0.12023817 0.005166118 0.58841783 4293718517
-0.11855937 0.0051631015 0.58807421 4293323758
-0.11731831 0.005179327 0.58992231 4293191915
-0.11562109 0.0051755859 0.5894962 4293718257
-0.11383335 0.00516763 0.58859003 4289638573
-0.11210965 0.0051623946 0.58799368 4290624698
-0.11062773 0.005168302 0.58866656 4290624696
-0.1093181 0.0051825522 0.59028965 4290098864
-0.10822399 0.0052076001 0.59314257 4289966766
-0.10699828 0.0052269814 0.59535009 4289703593
-0.12211701 0.0067906263 0.58971834 4293981689
-0.12031908 0.0067802104 0.58881378 4293718517
-0.11855997 0.0067717284 0.58807719 4293257966
-0.11719716 0.0067859599 0.58931309 4292994281
-0.11557963 0.006785634 0.58928478 4293586671
-0.1138474 0.0067784707 0.58866268 4289572528
-0.1121333 0.0067721959 0.58811778 4290493110
-0.11057143 0.0067750653 0.58836699 4290755514
-0.10915028 0.0067867707 0.58938348 4290098352
-0.10789867 0.0068095257 0.59135962 4289769386
-0.10663575 0.0068322485 0.59333295 4289506214
-0.12189369 0.008388347 0.58863986 4293981689
-0.12002164 0.0083700828 0.58735818 4293455345
-0.11813313 0.0083501581 0.58595997 4293389552
-0.11671273 0.0083632292 0.58687723 4292928743
-0.11520243 0.0083701322 0.58736163 4293585901
-0.11362711 0.0083724409 0.58752364 4290362296
-0.1122266 0.0083878795 0.58860707 4290098354
-0.11040304 0.0083716894 0.58747095 4290361523
-0.10888247 0.0083783362 0.58793736 4290229937
-0.10745566 0.0083925044 0.58893162 4289769386
-0.10630101 0.0084286835 0.59147042 4289768872
-0.10524186 0.008473671 0.59462732 4289834665
-0.10367438 0.0084784999 0.59496617 4290097584
-0.12029412 0.0099993655 0.58869159 4293783283
-0.11826179 0.0099638076 0.58659816 4293257453
-0.11692991 0.0099870972 0.5879693 4293059559
-0.11547906 0.010000733 0.58877206 4293125350
-0.11397507 0.010010088 0.58932281 4291678158
-0.11216561 0.009992498 0.58828723 4289703853
-0.11032663 0.0099717258 0.58706433 4290295730
-0.10860461 0.0099610696 0.58643699 4290098351
-0.10722402 0.009981879 0.5876621 4289769386
-0.10612392 0.010029829 0.59048504 4289834665
-0.10488266 0.010065717 0.59259784 4289702824
-0.10348807 0.010087783 0.59389693 4289834414
-0.12186005 0.011605424 0.58847743 4294113275
-0.11973158 0.011555357 0.58593869 4293783797
-0.11488264 0.011551265 0.58573121 4292862948
-0.11372957 0.011597062 0.58805341 4292796639
-0.11207718 0.011592526 0.58782345 4289703853
-0.11021613 0.011565961 0.58647639 4290164658
-0.10844765 0.011548469 0.58558941 4290360754
-0.10706002 0.011571617 0.5867632 4289900203
-0.10559134 0.011586576 0.58752173 4289768619
-0.10432142 0.011624145 0.58942676 4289768619
-0.10294933 0.011651331 0.59080523 4290031793
-0.10166156 0.011689077 0.59271926 4294835709
-0.10014412 0.011701212 0.59333462 4294901503
-0.098371878 0.011683485 0.59243572 4294901502
-0.097143032 0.011730783 0.59483403 4294901502
-0.095607102 0.011741978 0.5954017 4294901502
-0.090426341 0.011703815 0.59346658 4294836222
-0.088812046 0.011705006 0.59352702 4294901502
0.003643139 0.011438857 0.58003134 4291609887
0.0068125781 0.011432572 0.57971263 4291806761
-0.11845607 0.013194556 0.58756179 4293389552
-0.11681952 0.013191243 0.58741421 4292928743
-0.11528663 0.013199703 0.58779097 4292533983
-0.11414423 0.013253744 0.59019744 4293586155
-0.11228527 0.013224941 0.58891481 4289506987
-0.11068879 0.013226662 0.58899146 4290164145
-0.10907738 0.013226625 0.58898979 4290163375
-0.10792223 0.013282741 0.59148872 4289965998
-0.10651563 0.013309147 0.5926646 4289834412
-0.10507899 0.013332558 0.59370708 4294440438
-0.1034632 0.013333617 0.59375423 4294966782
-0.1018609 0.013336475 0.59388149 4294835709
-0.10035107 0.013351728 0.59456074 4294901502
-0.098664142 0.013343534 0.59419584 4294901502
-0.097431384 0.013397516 0.5965997 4294836222
-0.095676512 0.01338032 0.59583396 4294836222
-0.09397877 0.013370657 0.59540367 4294836222
-0.092313811 0.013365398 0.59516948 4294836222
-0.090491623 0.013336779 0.59389502 4294836222
-0.089050174 0.013364252 0.5951184 4294836222
-0.087050103 0.013307353 0.59258467 4294835967
0.0020664586 0.013088228 0.58282691 4291543843
0.0036471104 0.013039649 0.58066362 4292069159
0.0052341884 0.013036549 0.58052564 4291871268
0.0068216743 0.013035674 0.58048666 4291871778
0.0084003573 0.013021483 0.57985473 4291871525
0.010008763 0.013050555 0.58114934 4291675175
-0.11992846 0.014785131 0.5869022 4293784310
-0.113372 0.014767556 0.58620453 4293717741
-0.11192255 0.014787908 0.58701241 4289572267
-0.11029031 0.014784347 0.58687109 4290361526
-0.10887283 0.014809897 0.58788532 4290361526
-0.10763601 0.014861156 0.58992004 4289966514
-0.10625304 0.014893489 0.59120351 4292137683
-0.10458189 0.014885804 0.59089845 4294901503
-0.10272353 0.014850812 0.58950943 4294901503
-0.10102752 0.014838547 0.58902258 4294836222
-0.099656291 0.014874363 0.59044433 4294836222
-0.092385493 0.014745006 0.58530945 4294835967
-0.090814717 0.01474992 0.58550447 4294835967
-0.089515604 0.014799925 0.58748943 4294901759
-0.088325582 0.014870123 0.590276 4294705151
-0.086440854 0.014823802 0.58843726 4294639359
-0.084781632 0.014815128 0.58809298 4294573566
0.0020569754 0.014615088 0.58015227 4291674915
0.0036465204 0.014625603 0.58056968 4291805987
0.0052367365 0.014631614 0.58080828 4291871778
0.0068360842 0.014654402 0.58171284 4291937573
0.0083903307 0.014590158 0.57916266 4292069159
0.0099629806 0.014573238 0.57849103 4291937573
-0.1208489 0.016516311 0.59140658 4293850103
-0.11893661 0.016475504 0.58994538 4293454832
-0.1172736 0.016468581 0.58969748 4293125867
-0.11544219 0.016437488 0.58858407 4292797157
-0.11400937 0.016463069 0.58950013 4293717741
-0.11229603 0.0164483 0.58897126 4289638062
-0.11086457 0.016474986 0.58992684 4290230199
-0.10934001 0.016488424 0.59040797 4290295992
-0.10796354 0.01652493 0.59171516 4292269530
-0.10647716 0.016545467 0.59245056 4294967039
-0.10478019 0.01653341 0.59201884 4294835967
-0.10308449 0.01652118 0.59158087 4294835967
-0.10146122 0.016520351 0.59155118 4294835967
-0.10013501 0.016568648 0.59328061 4294835967
-0.09261512 0.016386664 0.58676422 4294572798
-0.090941824 0.016374368 0.58632392 4294441212
-0.089526013 0.016408825 0.58755773 4294441212
-0.088243045 0.016469333 0.58972442 4294112762
-0.086430497 0.016431417 0.58836675 4294178555
-0.08473359 0.016414465 0.58775973 4294113017
-0.083385102 0.016465656 0.58959275 4293980911
0.00047181163 0.01626265 0.58232361 4291739939
0.0020597219 0.016223643 0.58092684 4291937060
0.0036468082 0.016214948 0.58061552 4291739679
0.0052552861 0.016277786 0.5828656 4291937061
0.0068569588 0.016295202 0.58348918 4291871780
0.0084439423 0.016277721 0.58286327 4291871780
0.01001354 0.016237604 0.58142674 4291937573
0.011586515 0.016213207 0.58055317 4291871780
0.013221403 0.016270885 0.58261847 4291805987
-0.12225119 0.018102122 0.5903663 4294179068
-0.12015273 0.018029558 0.5879997 4293981689
-0.11829756 0.017992023 0.5867756 4293586418
-0.11655285 0.017970487 0.58607328 4293388525
-0.11497276 0.017974088 0.5861907 4292928741
-0.1135411 0.018001322 0.58707887 4293783280
-0.11189318 0.017994562 0.58685839 4289703857
-0.11032184 0.018000096 0.58703887 4290624959
-0.10878433 0.018011395 0.58740741 4291743186
-0.10720442 0.01801591 0.58755463 4294309373
-0.10553101 0.018004607 0.58718604 4294638591
-0.1038487 0.017991416 0.58675581 4294770175
-0.10226685 0.017995488 0.58688861 4294639359
-0.1006254 0.017989032 0.58667809 4294507775
-0.099170409 0.018016245 0.58756554 4294375419
-0.097660251 0.018034166 0.58815002 4294243833
-0.096040711 0.018032148 0.58808422 4294309626
-0.092140965 0.017899564 0.5837602 4293717489
-0.090523824 0.01789554 0.58362901 4293849075
-0.088977523 0.017905628 0.58395803 4293717489
-0.087623559 0.017955497 0.5855844 4293849075
-0.086085945 0.017968893 0.58602124 4293980661
-0.084504001 0.017973367 0.58616716 4294112245
-0.083060846 0.018008102 0.5873 4294440949
-0.0011193355 0.017828193 0.58143258 4291281185
0.00046928591 0.017759928 0.57920629 4291674146
0.0020540918 0.017763996 0.57933897 4291871014
0.0036446578 0.017792642 0.58027315 4291937060
0.0052297609 0.017785328 0.58003461 4291937061
0.0068167578 0.017786359 0.58006829 4291871267
0.008416011 0.017812943 0.58093524 4291871267
0.010008747 0.017819479 0.58114839 4291937060
0.011593902 0.017812578 0.58092332 4292068646
0.01316755 0.017791789 0.58024538 4292002853
0.014749367 0.017785326 0.58003455 4291937318
0.016342901 0.017792873 0.58028072 4291871778
0.017964846 0.017827278 0.58140278 4291872808
-0.12060863 0.019712457 0.59023076 4294046969
-0.11870472 0.019664513 0.58879519 4293586418
-0.11736645 0.019710241 0.59016436 4293191660
-0.11550155 0.01966757 0.58888674 4292862950
-0.11397636 0.019682357 0.58932948 4293520110
-0.11204793 0.019626934 0.58767003 4289901493
-0.11093739 0.019715248 0.59031427 4290822338
-0.10936794 0.019723414 0.59055877 4293388011
-0.10785151 0.019741526 0.59110111 4293914869
-0.10605142 0.019707479 0.59008169 4294243834
-0.10445162 0.019710176 0.5901624 4293980661
-0.10280915 0.019704776 0.59000075 4293849075
-0.10107156 0.019680683 0.58927935 4293849075
-0.099525437 0.019693699 0.58966905 4293980148
-0.097975813 0.019706436 0.59005046 4293914869
-0.094769217 0.019710887 0.59018373 4294835455
-0.093031347 0.019684754 0.58940125 4294967039
-0.091285244 0.019655924 0.58853805 4294966783
-0.08951503 0.019620778 0.58748567 4294900991
-0.088177741 0.019680971 0.589288 4294901503
-0.086617164 0.019692643 0.58963746 4294967295
-0.0011172633 0.019382669 0.58035618 4291609382
0.00047040434 0.019390365 0.58058667 4291871525
0.0020621927 0.019425001 0.58162373 4291805732
0.0036544781 0.019432113 0.58183664 4291871780
0.005238927 0.019405881 0.58105123 4291805987
0.0068206158 0.019384017 0.58039659 4292002853
0.0084291138 0.019432215 0.58183974 4291937060
0.010030407 0.01945113 0.5824061 4291937060
0.011642044 0.019482171 0.58333552 4292068646
0.013222305 0.019459551 0.58265823 4291937060
0.014818661 0.019462937 0.58275962 4291805987
0.016389577 0.019435497 0.58193797 4291937060
0.017974779 0.019428357 0.58172423 4291937573
0.019606285 0.019468356 0.58292186 4291806502
-0.11145558 0.021122165 0.58456326 4293256938
-0.11027171 0.021201978 0.58677208 4290756545
-0.10882448 0.021232769 0.58762425 4293651437
-0.10711107 0.021211766 0.58704299 4294375160
-0.10536464 0.021183485 0.58626032 4294769918
-0.10364463 0.021159727 0.58560282 4294967295
-0.10194255 0.02113894 0.58502752 4294901503
-0.095802337 0.021196647 0.58662456 4294967036
-0.094253168 0.021209128 0.58696997 4292335316
-0.092553817 0.021187659 0.58637583 4289637803
-0.090787984 0.021149946 0.5853321 4288848285
-0.089078493 0.021124242 0.58462071 4288914078
-0.087753356 0.021190405 0.58645183 4289045664
-0.086254723 0.021216361 0.58717018 4288979871
-0.084738277 0.021238837 0.58779222 4289045663
-0.083126783 0.021237899 0.58776623 4289637286
-0.0026961092 0.020903202 0.57850337 4291215142
-0.0011120924 0.020873096 0.57767016 4291609123
0.00047050044 0.020982765 0.58070529 4291739939
0.0020602043 0.020995686 0.58106291 4291871525
0.0036476413 0.020984313 0.58074814 4291871780
0.0052143177 0.020896642 0.57832181 4291871780
0.0067967814 0.020898325 0.57836843 4291740194
0.0083830282 0.02090881 0.57865858 4291937060
0.0099763181 0.020930739 0.57926548 4291937060
0.011578543 0.020962834 0.5801537 4292068646
0.013160389 0.020954745 0.57992983 4291937060
0.014768908 0.020986296 0.58080304 4291871267
0.016338557 0.020961849 0.58012646 4291937060
0.017910136 0.020943988 0.57963216 4292069159
0.019505862 0.020954972 0.57993615 4292003366
0.021061029 0.020924013 0.57907933 4291805987
0.02269442 0.020969659 0.58034259 4291805987
-0.12025727 0.022874607 0.58851129 4293981176
-0.11851723 0.022849493 0.58786517 4293718004
-0.11709619 0.022886038 0.58880538 4293257453
-0.11518002 0.02282548 0.58724737 4292994536
-0.11363603 0.022838011 0.58756977 4293256936
-0.11207479 0.022847382 0.58781087 4293256936
-0.10942748 0.022966687 0.59088027 4294967295
-0.10781359 0.022967193 0.59089333 4294111473
-0.1059048 0.022903936 0.58926588 4291611339
-0.10422163 0.022888275 0.58886296 4289111205
-0.10253696 0.022871787 0.58843875 4288782240
-0.10095854 0.022878848 0.58862042 4289111459
-0.099306814 0.022869259 0.58837372 4288979873
-0.097762108 0.022884406 0.58876342 4289308836
-0.096554793 0.02298036 0.59123206 4289308836
-0.0913454 0.022890722 0.5889259 4289572008
-0.089492641 0.022829032 0.58733875 4289572008
-0.088077053 0.022878643 0.58861512 4289703594
-0.086429641 0.022868762 0.58836091 4289637800
-0.084894471 0.022888772 0.58887571 4289834665
-0.083230048 0.022874027 0.58849639 4289965738
-0.0026977684 0.022499451 0.57885939 4291937318
-0.0011158535 0.022529166 0.57962388 4291805732
0.00047022942 0.022558197 0.58037078 4291871525
0.0020579593 0.022560488 0.58042973 4291739939
0.0036410484 0.022532066 0.5796985 4291805987
0.0052295201 0.022544093 0.58000791 4291543329
0.0068100831 0.022524362 0.57950032 4291937573
0.0083919503 0.022515582 0.57927442 4292002853
0.0099697355 0.022500377 0.57888323 4291937060
0.011592076 0.022576116 0.58083183 4292068646
0.013195555 0.022601288 0.58147943 4291937060
0.01479988 0.022622341 0.58202106 4292003366
0.016367149 0.02258816 0.58114165 4292003364
0.017955679 0.022586778 0.58110613 4291871778
0.019537237 0.02257756 0.58086896 4291871778
0.021108387 0.022558611 0.58038145 4291937060
0.022695314 0.022557991 0.58036548 4291937061
0.024298975 0.022572998 0.5807516 4291937060
0.02594021 0.022618925 0.5819332 4291937571
-0.11985418 0.024402328 0.58653867 4294046969
-0.11810191 0.024371808 0.58580512 4293652211
-0.11448649 0.0242847 0.58371139 4292928743
-0.11285578 0.024277378 0.58353537 4292401627
-0.11134735 0.024296524 0.58399558 4293519847
-0.10993605 0.024337731 0.58498603 4288651419
-0.10848363 0.024370918 0.58578372 4288914078
-0.10695882 0.024388595 0.58620858 4289308066
-0.1052525 0.024364788 0.58563638 4289242273
-0.10036179 0.024344185 0.58514118 4289572008
-0.098767079 0.024345633 0.58517593 4289506214
-0.097326778 0.024385812 0.58614171 4289572007
-0.095897458 0.024430133 0.58720702 4289572007
-0.094451971 0.024471778 0.58820802 4289637286
-0.092750706 0.024447449 0.58762324 4289571493
-0.090816274 0.024359716 0.58551449 4289439907
-0.089225762 0.024362743 0.5855872 4289308835
-0.087658092 0.024372227 0.58581519 4289243042
-0.086116172 0.02438936 0.586227 4289374628
-0.084436089 0.024367273 0.5856961 4289308835
-0.004276556 0.024056967 0.57823753 4291608871
-0.0026928815 0.024039214 0.57781082 4291739939
-0.0011122711 0.024037223 0.57776296 4291871525
0.00046826334 0.024044763 0.57794422 4291805732
0.0020475977 0.024026588 0.57750732 4291871525
0.0036298248 0.024043405 0.57791156 4291739939
0.0052239462 0.024104901 0.57938969 4291871268
0.0068005649 0.024075806 0.57869035 4291805987
0.0083699161 0.024036828 0.57775348 4291740194
0.0099354293 0.024000958 0.5768913 4291937573
0.011540919 0.024058256 0.57826853 4291805987
0.013110217 0.02403539 0.57771891 4291937573
0.014715173 0.024075786 0.57868987 4291937571
0.016289219 0.024062671 0.57837462 4292069157
0.017916668 0.024123784 0.57984358 4292003364
0.019482924 0.024099262 0.57925415 4292069157
0.021096112 0.024132119 0.58004391 4291937573
0.022678966 0.024128105 0.57994741 4292003366
0.024254741 0.024117578 0.57969439 4292134440
0.02575336 0.024036329 0.5777415 4292068647
0.027349489 0.024050225 0.57807547 4292003364
0.028998246 0.02410635 0.5794245 4291806501
-0.11548736 0.02610762 0.58881438 4292665571
-0.11199914 0.026045533 0.58741409 4293388772
-0.11057794 0.02608932 0.58840162 4288848797
-0.10895738 0.026086669 0.58834183 4289637800
-0.10765726 0.02616181 0.59003651 4289374114
-0.10625774 0.026214711 0.59122962 4289308321
-0.10454581 0.026190987 0.59069455 4289176735
-0.10276035 0.026147809 0.58972073 4289308321
-0.10113975 0.026145866 0.58967692 4289177249
-0.099493898 0.026137231 0.58948219 4289177762
-0.098005779 0.026170431 0.59023094 4289111456
-0.096606605 0.026228888 0.59154934 4289110942
-0.09342812 0.0262451 0.59191501 4288847770
-0.091610596 0.026188375 0.59063566 4288781977
-0.090023801 0.026196759 0.59082472 4288585112
-0.088543311 0.026236946 0.59173107 4288716698
-0.086883359 0.026224464 0.59144956 4288650905
-0.085199155 0.02620405 0.59098917 4288716182
-0.083523333 0.026185472 0.59057015 4288716182
-0.0042694737 0.025596192 0.57727993 4291806502
-0.0026961674 0.025650993 0.57851589 4291805732
-0.0011152354 0.025685884 0.57930279 4291937318
0.0004693245 0.025683716 0.57925391 4291739939
0.0020548359 0.025696794 0.57954884 4291739939
0.0036492536 0.025761353 0.58100486 4291871525
0.0052476553 0.02580633 0.58201927 4291937061
0.0068283454 0.025763545 0.58105433 4291871780
0.0084096501 0.025738798 0.58049619 4291871780
0.0099890269 0.025716947 0.58000338 4291871780
0.011604249 0.025780722 0.5814417 4291937573
0.013165748 0.025724158 0.58016598 4291871780
0.014751524 0.02572209 0.58011937 4291871778
0.016312758 0.025681788 0.5792104 4292003364
0.017954662 0.025764382 0.58107316 4292069157
0.019565059 0.025792005 0.58169615 4292002851
0.021216866 0.025865959 0.58336407 4291937058
0.022768978 0.025816526 0.58224922 4292002854
0.024352742 0.025807103 0.58203667 4292068644
0.025845578 0.025708385 0.57981026 4292068646
0.027476097 0.025750121 0.58075154 4291871267
0.029043265 0.025731167 0.58032405 4292003364
0.03069677 0.025786703 0.58157659 4291740192
0.032243177 0.025751233 0.58077663 4291609125
-0.11451478 0.027484808 0.58385563 4292928743
-0.11293408 0.027488789 0.58394021 4292599776
-0.1113811 0.02749973 0.58417261 4293256675
-0.11002609 0.027560575 0.58546513 4289835692
-0.10846777 0.02757154 0.58569807 4289703593
-0.10685765 0.027569469 0.58565408 4289768872
-0.10568438 0.02768176 0.58803946 4288847770
-0.104081 0.02768312 0.58806837 4288913563
-0.10251245 0.027693935 0.58829808 4288650391
-0.10067729 0.027631916 0.58698064 4288519319
-0.098953329 0.027598906 0.58627939 4288585112
-0.097369149 0.027604437 0.58639687 4288387733
-0.096074529 0.027693614 0.58829129 4288584598
-0.094504975 0.027705234 0.58853811 4288518290
-0.092901573 0.027707161 0.58857906 4288386704
-0.089844555 0.027757499 0.58964837 4288189838
-0.088279307 0.027772488 0.58996677 4288124045
-0.086625934 0.027759796 0.58969718 4288189838
-0.084892921 0.027720619 0.58886492 4288058252
-0.002685219 0.027122853 0.57616669 4291805732
-0.0011106922 0.027159389 0.5769428 4291739939
0.00046976507 0.027293781 0.57979769 4291805732
0.0020578415 0.027321972 0.58039653 4291871525
0.0036541813 0.027387539 0.58178937 4291871525
0.005227122 0.027291154 0.5797419 4292003111
0.0068185055 0.027313521 0.580217 4291740194
0.0083974525 0.027287027 0.57965422 4291740194
0.0099768266 0.027270116 0.57929498 4291871780
0.01155477 0.027254468 0.57896256 4291937573
0.013111783 0.027199173 0.57778794 4291805987
0.014705713 0.027224118 0.57831782 4291937573
0.016275512 0.027203882 0.57788795 4292003366
0.017899754 0.027270174 0.57929617 4291871778
0.019514639 0.027312584 0.5801971 4291937058
0.021154717 0.027381226 0.58165526 4292002853
0.022722524 0.027353266 0.5810613 4292002853
0.02428453 0.027322436 0.58040637 4292068646
0.025768314 0.027212778 0.57807696 4291871267
0.027356135 0.027219322 0.57821596 4292134439
0.028948624 0.027229538 0.57843298 4292002854
0.030585771 0.027278526 0.57947361 4291937061
0.032086004 0.027206594 0.57794559 4291542564
-0.11531623 0.029285396 0.58794188 4292731621
-0.11383706 0.029318633 0.58860916 4292665053
-0.11227184 0.029330349 0.58884436 4293388261
-0.11088248 0.029389011 0.59002209 4289243042
-0.10917845 0.02936478 0.58953559 4289900972
-0.10756208 0.029363746 0.58951485 4290163630
-0.10633196 0.02946973 0.59164262 4289637286
-0.099751152 0.029438037 0.59100634 4288189838
-0.098132595 0.029437454 0.59099466 4288123532
-0.091884084 0.029507402 0.59239894 4287992200
-0.087214909 0.029572533 0.59370655 4287663494
-0.0058418061 0.028721217 0.57661527 4291675175
-0.0042678476 0.028743375 0.5770601 4291805987
-0.0026937788 0.028790357 0.57800335 4291937571
-0.0011149301 0.028847186 0.57914424 4291740194
0.00047129692 0.028973907 0.58168834 4291805987
0.0020653009 0.029014356 0.5825004 4291608608
0.0052485308 0.028995227 0.58211637 4291805987
0.0068552941 0.029056549 0.5833475 4291871780
0.0084385816 0.029013999 0.58249325 4291805987
0.010024585 0.028992819 0.58206803 4291871780
0.011601105 0.028953778 0.58128422 4291871780
