ply
format ascii 1.0
comment PCL generated
element vertex 1163
property float x
property float y
property float z
property uchar red
property uchar green
property uchar blue
element camera 0
property float view_px
property float view_py
property float view_pz
property float x_axisx
property float x_axisy
property float x_axisz
property float y_axisx
property float y_axisy
property float y_axisz
property float z_axisx
property float z_axisy
property float z_axisz
property float focal
property float scalex
property float scaley
property float centerx
property float centery
property int viewportx
property int viewporty
property float k1
property float k2
end_header
0.013817012 -0.11123671 0.60886478 176 182 180
0.015575826 -0.11190742 0.61253595 176 182 178
0.017272374 -0.11204391 0.6132831 178 185 178
0.018951751 -0.11205474 0.61334234 177 183 179
0.020578677 -0.11177889 0.61183244 178 184 180
0.022273008 -0.11188313 0.61240304 176 182 178
0.023978243 -0.11202373 0.61317259 176 182 178
0.025652625 -0.11201122 0.61310416 176 182 178
0.027344411 -0.11207158 0.61343455 179 185 181
0.029060384 -0.11221837 0.61423802 179 185 181
0.030889863 -0.11276346 0.61722159 180 186 182
0.032574691 -0.11275136 0.61715537 179 185 181
0.034243442 -0.11268757 0.61680621 181 187 183
0.035829041 -0.11236896 0.6150623 181 187 185
0.037552066 -0.11249062 0.6157282 182 188 184
0.039262738 -0.11256641 0.61614305 184 190 186
0.040841222 -0.11227258 0.61453474 184 190 186
0.042446431 -0.11207253 0.61343974 185 191 187
0.044079885 -0.11195945 0.6128208 186 192 188
0.045954771 -0.11244542 0.61548078 185 191 187
0.047829792 -0.11289734 0.61795443 182 188 184
0.049606767 -0.11309488 0.61903566 186 190 189
0.051190577 -0.11285354 0.6177147 183 187 186
0.052803636 -0.11269005 0.6168198 183 185 184
0.054530445 -0.11277191 0.61726785 178 180 179
0.056190997 -0.11271596 0.6169616 177 179 178
0.057834718 -0.11263049 0.61649376 183 185 184
0.059604291 -0.112788 0.61735594 185 185 185
0.061389156 -0.11296498 0.61832464 187 187 187
0.062994994 -0.11281187 0.6174866 189 189 189
0.064752623 -0.11293148 0.61814129 194 194 196
0.066674739 -0.11332457 0.6202929 237 238 242
0.06775412 -0.11230134 0.61469215 0 0 0
0.068186104 -0.1102806 0.60363144 0 0 0
0.068639204 -0.10838876 0.59327626 238 239 243
0.069840461 -0.10773844 0.58971667 235 240 244
0.071408227 -0.10767011 0.58934265 237 242 246
0.072996423 -0.10763491 0.58915001 238 243 247
0.074607521 -0.10763428 0.58914655 242 247 251
0.076227151 -0.10764571 0.58920914 244 248 251
0.077843718 -0.10765246 0.58924609 248 249 253
0.079627417 -0.10788536 0.59052086 246 250 253
0.081199415 -0.10782789 0.59020627 243 249 249
0.082885101 -0.10792068 0.59071416 239 245 245
0.084372878 -0.10775714 0.58981907 229 235 235
0.086023055 -0.10780329 0.59007162 216 220 219
0.087509394 -0.10764617 0.58921164 207 211 210
0.089417666 -0.10800438 0.59117234 201 205 204
0.091064334 -0.10803951 0.59136462 206 210 209
0.092757143 -0.10812718 0.5918445 207 211 210
0.094152413 -0.10787097 0.59044206 208 212 211
0.095792308 -0.10789893 0.59059513 208 214 212
0.097336821 -0.1078203 0.59016478 210 216 214
0.098898888 -0.10776337 0.58985317 210 216 214
0.10035033 -0.10758968 0.58890241 211 217 215
0.10200202 -0.10763276 0.58913827 210 216 214
0.10375204 -0.10777665 0.58992583 209 215 213
0.10545826 -0.10787133 0.59044409 209 215 213
0.10726123 -0.10806063 0.5914802 207 213 209
0.10871369 -0.10789643 0.59058148 205 211 207
0.1103559 -0.10792259 0.59072465 204 210 206
0.11186177 -0.10781659 0.59014446 202 208 204
0.11344476 -0.10778689 0.58998191 201 207 205
0.11490329 -0.10764142 0.58918566 200 206 202
0.11641435 -0.10754851 0.58867705 197 203 199
0.1181953 -0.10770407 0.58952856 198 205 198
0.12007906 -0.10794786 0.59086293 197 204 197
0.12199779 -0.10821619 0.59233171 196 203 196
0.12378817 -0.10836514 0.59314698 197 204 197
0.1253446 -0.10830808 0.59283465 195 202 195
0.12655562 -0.10795782 0.59091747 194 201 194
0.127827 -0.10766724 0.58932698 193 200 193
0.12940286 -0.10763717 0.58916235 167 174 167
0.13155243 -0.10807916 0.59158164 158 165 158
0.13664359 -0.11089778 0.60700965 162 168 164
0.14008537 -0.11232617 0.61482805 165 170 166
0.14181206 -0.11236175 0.61502284 166 170 169
0.14381176 -0.1126103 0.61638325 166 172 172
0.1453117 -0.11246626 0.61559486 172 178 176
0.14683807 -0.11234576 0.61493528 173 179 177
0.14824428 -0.11213709 0.61379313 177 183 181
0.15006033 -0.11223964 0.61435443 178 184 182
0.15182871 -0.11230466 0.61471033 179 185 183
0.15369155 -0.11243736 0.61543667 181 187 185
0.15555964 -0.11257099 0.61616814 180 186 184
0.15729395 -0.11260596 0.61635953 180 186 184
0.15926084 -0.11280496 0.61744875 181 187 185
0.16035119 -0.11238541 0.61515236 183 189 187
0.1619193 -0.11230595 0.61471742 184 190 188
0.16328104 -0.11208648 0.61351609 179 185 183
0.16550356 -0.11245635 0.61554062 181 187 185
0.16704577 -0.11236116 0.61501956 183 189 187
0.16878042 -0.11239602 0.61521041 181 187 185
0.17018615 -0.11221332 0.61421037 183 189 187
0.17212357 -0.11238133 0.61513001 184 190 188
0.17399278 -0.112502 0.61579049 183 189 187
0.17550831 -0.11239386 0.61519855 182 188 186
0.17683263 -0.11216647 0.61395395 182 188 186
0.17819598 -0.11196791 0.61286706 181 187 185
0.17978118 -0.11191113 0.61255628 182 188 186
0.18141276 -0.11188399 0.61240774 184 190 188
0.18312699 -0.11190787 0.61253846 183 189 185
0.18518004 -0.11213649 0.61378986 184 190 186
0.18703537 -0.11224236 0.61436933 184 190 186
0.18863553 -0.11219456 0.61410767 182 188 184
0.18992662 -0.11196541 0.61285341 183 189 185
0.19122951 -0.11174716 0.61165881 183 189 187
0.19277172 -0.11167133 0.61124372 183 189 187
0.19424163 -0.11155529 0.61060858 183 189 187
0.19605108 -0.11163457 0.6110425 184 190 188
0.19783252 -0.11169668 0.61138248 184 190 186
0.19955596 -0.11172529 0.61153907 185 191 187
0.20098296 -0.11158883 0.61079216 186 192 188
0.20244654 -0.11147475 0.61016774 185 191 187
0.20462961 -0.11175549 0.61170441 185 191 189
0.20591535 -0.11154559 0.61055547 187 193 191
0.20717278 -0.11132384 0.60934174 187 193 191
0.20814227 -0.11095215 0.60730726 186 192 188
0.21019818 -0.1111609 0.60844982 186 192 188
0.21177326 -0.11111407 0.60819352 186 193 186
0.21344998 -0.11112089 0.60823083 186 193 186
0.21487114 -0.11099558 0.60754496 157 164 157
0.21715868 -0.11131631 0.60930049 176 183 176
0.21925461 -0.11153468 0.61049581 186 192 188
0.22091845 -0.11153162 0.610479 188 194 190
0.22193716 -0.11120533 0.60869306 186 192 188
0.22313388 -0.11097244 0.6074183 187 193 191
0.22462445 -0.11088807 0.60695648 189 195 191
0.22647817 -0.11098287 0.6074754 189 195 191
0.22861795 -0.11121546 0.6087485 187 193 189
0.23058277 -0.11136019 0.6095407 189 195 191
0.23237036 -0.11141787 0.60985637 187 193 189
0.23385002 -0.11132811 0.60936511 188 194 190
0.2355839 -0.11135981 0.60953861 189 195 191
0.23686466 -0.11117837 0.60854548 188 194 190
0.23793773 -0.11090267 0.60703641 189 195 191
0.23909217 -0.11066845 0.60575438 191 197 193
0.2404065 -0.11051095 0.60489225 188 194 190
0.24152371 -0.11026561 0.60354942 192 198 194
0.24302228 -0.11019653 0.60317129 194 199 195
0.24447849 -0.11010931 0.60269386 175 180 174
0.24773617 -0.11082916 0.60663402 157 162 155
0.24987686 -0.11104306 0.60780483 100 105 98
0.25278392 -0.11159246 0.61081201 108 115 107
0.25406352 -0.11142088 0.60987288 161 168 161
0.2560614 -0.11156452 0.61065912 192 198 194
0.25655195 -0.11105382 0.60786372 195 201 199
0.25793368 -0.11093295 0.60720217 187 191 190
0.25911185 -0.11072666 0.60607302 186 191 187
0.26083264 -0.11075341 0.60621941 186 191 187
0.26284531 -0.11090296 0.60703796 184 191 184
0.26470274 -0.11098554 0.60749 186 192 188
0.26686767 -0.11119522 0.60863769 189 195 191
0.26835003 -0.11111966 0.60822409 189 195 191
0.27029243 -0.11123434 0.60885185 191 197 193
0.27131179 -0.1109701 0.60740548 193 198 194
0.27191389 -0.11053943 0.60504818 195 200 196
0.27314818 -0.11036944 0.60411769 191 196 192
0.27527893 -0.11056153 0.60516912 193 198 194
0.27811661 -0.11103355 0.6077528 188 193 189
0.27940595 -0.11088549 0.60694236 187 192 186
0.2805959 -0.11069997 0.60592687 186 191 185
0.28134874 -0.11034518 0.60398495 189 194 188
0.28420547 -0.11081488 0.60655588 196 201 195
0.28600082 -0.11086767 0.60684484 193 198 194
0.28734013 -0.1107441 0.60616845 189 194 190
0.28974882 -0.11103173 0.60774285 189 195 191
0.29157135 -0.11109275 0.60807681 189 195 191
0.29280183 -0.11092877 0.60717922 191 198 191
0.29407072 -0.11078111 0.60637105 191 198 191
0.2947596 -0.11041784 0.60438263 191 198 191
0.29633701 -0.11038961 0.60422808 192 198 194
0.29753321 -0.11022047 0.6033023 190 196 192
0.30038905 -0.11066461 0.60573339 190 196 192
0.30254501 -0.11084747 0.60673422 190 197 190
0.30417877 -0.11083804 0.60668266 189 196 189
0.30578378 -0.11081829 0.60657454 190 197 190
0.30672041 -0.11055783 0.60514891 187 194 187
0.30808499 -0.11045361 0.60457844 188 195 188
0.30802885 -0.10984387 0.60124093 186 193 186
0.30969605 -0.10985187 0.60128474 184 189 182
0.31020206 -0.1094501 0.59908563 174 179 172
0.31112322 -0.10919825 0.59770709 164 165 157
0.31042787 -0.10838463 0.59325367 0 0 0
0.30844253 -0.10713144 0.58639419 0 0 0
0.30606109 -0.10575433 0.57885647 0 0 0
0.30367139 -0.10438856 0.57138079 177 176 158
nan nan nan 0 0 0
nan nan nan 0 0 0
nan nan nan 0 0 0
nan nan nan 0 0 0
nan nan nan 0 0 0
nan nan nan 0 0 0
nan nan nan 0 0 0
nan nan nan 0 0 0
nan nan nan 0 0 0
nan nan nan 0 0 0
nan nan nan 0 0 0
nan nan nan 0 0 0
nan nan nan 0 0 0
nan nan nan 0 0 0
nan nan nan 0 0 0
nan nan nan 0 0 0
nan nan nan 0 0 0
nan nan nan 0 0 0
nan nan nan 0 0 0
nan nan nan 0 0 0
nan nan nan 0 0 0
nan nan nan 0 0 0
nan nan nan 0 0 0
nan nan nan 0 0 0
nan nan nan 0 0 0
nan nan nan 0 0 0
nan nan nan 0 0 0
nan nan nan 0 0 0
nan nan nan 0 0 0
nan nan nan 0 0 0
nan nan nan 0 0 0
nan nan nan 0 0 0
nan nan nan 0 0 0
nan nan nan 0 0 0
nan nan nan 0 0 0
nan nan nan 0 0 0
nan nan nan 0 0 0
nan nan nan 0 0 0
nan nan nan 0 0 0
nan nan nan 0 0 0
nan nan nan 0 0 0
nan nan nan 0 0 0
nan nan nan 0 0 0
nan nan nan 0 0 0
nan nan nan 0 0 0
nan nan nan 0 0 0
nan nan nan 0 0 0
nan nan nan 0 0 0
nan nan nan 0 0 0
nan nan nan 0 0 0
nan nan nan 0 0 0
nan nan nan 0 0 0
nan nan nan 0 0 0
nan nan nan 0 0 0
nan nan nan 0 0 0
nan nan nan 0 0 0
nan nan nan 0 0 0
nan nan nan 0 0 0
nan nan nan 0 0 0
nan nan nan 0 0 0
nan nan nan 0 0 0
nan nan nan 0 0 0
nan nan nan 0 0 0
nan nan nan 0 0 0
nan nan nan 0 0 0
nan nan nan 0 0 0
nan nan nan 0 0 0
nan nan nan 0 0 0
nan nan nan 0 0 0
nan nan nan 0 0 0
nan nan nan 0 0 0
nan nan nan 0 0 0
nan nan nan 0 0 0
nan nan nan 0 0 0
nan nan nan 0 0 0
nan nan nan 0 0 0
nan nan nan 0 0 0
nan nan nan 0 0 0
nan nan nan 0 0 0
nan nan nan 0 0 0
nan nan nan 0 0 0
nan nan nan 0 0 0
nan nan nan 0 0 0
nan nan nan 0 0 0
nan nan nan 0 0 0
nan nan nan 0 0 0
nan nan nan 0 0 0
nan nan nan 0 0 0
nan nan nan 0 0 0
nan nan nan 0 0 0
nan nan nan 0 0 0
nan nan nan 0 0 0
nan nan nan 0 0 0
nan nan nan 0 0 0
nan nan nan 0 0 0
nan nan nan 0 0 0
nan nan nan 0 0 0
nan nan nan 0 0 0
nan nan nan 0 0 0
nan nan nan 0 0 0
nan nan nan 0 0 0
nan nan nan 0 0 0
nan nan nan 0 0 0
nan nan nan 0 0 0
nan nan nan 0 0 0
nan nan nan 0 0 0
nan nan nan 0 0 0
nan nan nan 0 0 0
nan nan nan 0 0 0
nan nan nan 0 0 0
nan nan nan 0 0 0
nan nan nan 0 0 0
nan nan nan 0 0 0
nan nan nan 0 0 0
nan nan nan 0 0 0
nan nan nan 0 0 0
-0.33166111 -0.10871784 0.60412258 170 176 172
-0.33260337 -0.10957266 0.60887259 187 191 190
-0.33040643 -0.1093967 0.60789484 188 192 191
-0.32838055 -0.10927588 0.60722345 194 198 197
-0.32671958 -0.10927588 0.60722345 194 200 198
-0.32506201 -0.10927702 0.60722983 196 202 202
-0.32378128 -0.1094055 0.60794377 198 204 202
-0.3220472 -0.10938135 0.60780954 196 202 200
-0.31951824 -0.10908557 0.60616595 198 204 202
-0.31745088 -0.10894509 0.60538536 199 205 203
-0.31598714 -0.1090114 0.60575384 198 204 202
-0.31550148 -0.10941762 0.60801113 193 199 197
-0.31368345 -0.10936361 0.60771096 189 195 191
-0.31168908 -0.10924722 0.60706425 189 195 191
-0.30909553 -0.10891844 0.60523725 192 198 194
-0.30812621 -0.10916156 0.60658818 192 199 192
-0.30634344 -0.10911755 0.60634369 192 199 192
-0.30479997 -0.10915878 0.60657275 191 200 195
-0.30276355 -0.10902294 0.60581791 191 200 195
-0.30163622 -0.10921477 0.60688388 191 200 195
-0.29976627 -0.10913834 0.6064592 191 200 195
-0.29863852 -0.10933279 0.60753971 192 201 196
-0.29633111 -0.10909513 0.60621905 192 201 196
-0.29449406 -0.10902892 0.60585117 192 201 196
-0.29230866 -0.10883226 0.60475838 190 199 194
-0.29163015 -0.10919762 0.60678858 195 201 197
-0.29016185 -0.10926972 0.60718924 193 199 195
-0.28857073 -0.10929614 0.60733604 193 199 195
-0.28693193 -0.10930471 0.60738367 192 198 194
-0.28561631 -0.1094372 0.6081199 193 199 195
-0.28366795 -0.10932738 0.60750967 193 199 195
-0.28115538 -0.10899754 0.60567677 190 200 192
-0.27931592 -0.10892629 0.60528088 190 200 192
-0.27760777 -0.1089057 0.60516644 190 200 192
-0.27639437 -0.10908011 0.60613561 191 201 193
-0.27523458 -0.10927791 0.60723478 190 200 192
-0.27405974 -0.10947212 0.60831392 190 200 192
-0.274142 -0.1101739 0.61221355 190 200 192
-0.2719909 -0.10998122 0.61114293 189 199 191
-0.27027929 -0.10996499 0.61105269 190 200 192
-0.26841128 -0.10988452 0.61060554 190 197 190
-0.26650095 -0.10978561 0.61005592 189 196 189
-0.26454958 -0.10966843 0.6094048 189 196 189
-0.26263717 -0.10956603 0.60883576 191 198 191
-0.26104289 -0.10959588 0.60900164 189 196 189
-0.25964543 -0.10970928 0.60963178 189 196 189
-0.25799224 -0.10971538 0.60966569 187 194 187
-0.25704983 -0.11002582 0.61139071 187 194 187
-0.25497833 -0.10985386 0.61043519 189 196 189
-0.2538653 -0.11009529 0.61177677 192 199 192
-0.25180838 -0.10992789 0.61084652 187 194 187
-0.25073603 -0.11019092 0.61230814 188 195 188
-0.24889939 -0.11011935 0.61191046 187 194 187
-0.24694094 -0.10999256 0.61120594 189 195 191
-0.24482468 -0.10979327 0.61009848 186 196 188
-0.24330078 -0.10985871 0.61046213 185 195 187
-0.24195184 -0.11000461 0.61127287 189 199 191
-0.24079102 -0.11023866 0.61257344 185 195 187
-0.23877752 -0.11008288 0.61170781 186 196 188
-0.23749447 -0.11026404 0.61271447 188 195 188
-0.23555042 -0.1101387 0.61201799 190 197 190
-0.23448418 -0.11042495 0.6136086 190 197 190
-0.23245287 -0.11025758 0.61267859 188 195 188
-0.23109508 -0.11040956 0.61352307 188 195 188
-0.22920117 -0.11030574 0.61294621 188 195 188
-0.22760297 -0.11034377 0.61315751 191 198 191
-0.2258267 -0.11029539 0.61288863 189 196 189
-0.22415048 -0.1102955 0.61288929 189 196 189
-0.22228554 -0.11020206 0.61237007 190 197 190
-0.22023603 -0.11001501 0.61133069 188 195 188
-0.21887216 -0.11017022 0.61219311 188 194 190
-0.21734516 -0.11024506 0.61260903 187 196 191
-0.21530613 -0.11005934 0.61157703 188 197 192
-0.21331802 -0.10989694 0.61067456 191 200 195
-0.21185885 -0.11000662 0.61128408 189 198 193
-0.21062551 -0.11023626 0.61256009 188 197 192
-0.20887057 -0.11019439 0.6123274 188 194 190
-0.20674707 -0.10995582 0.61100173 190 196 192
-0.20513994 -0.10999022 0.61119294 191 197 193
-0.20378852 -0.11016344 0.61215544 192 199 192
-0.20271833 -0.11049279 0.6139856 191 198 191
-0.20099035 -0.11046614 0.61383748 190 196 192
-0.19905755 -0.1103255 0.613056 191 197 193
-0.19716145 -0.110203 0.61237526 190 196 192
-0.19577712 -0.1103669 0.61328602 189 195 191
-0.19406839 -0.11034916 0.61318749 187 196 191
-0.19248568 -0.11040341 0.61348891 187 196 191
-0.19066194 -0.11031915 0.61302072 187 196 191
-0.18878084 -0.11019991 0.61235815 187 193 189
-0.18673262 -0.1099801 0.61113667 186 192 188
-0.18512903 -0.11002057 0.61136156 183 189 185
-0.18358807 -0.11009934 0.61179924 184 190 186
-0.18220298 -0.11027388 0.61276913 185 191 187
-0.18062302 -0.11033264 0.61309564 183 190 183
-0.17921367 -0.11049768 0.61401272 176 183 176
-0.17750491 -0.11047949 0.61391169 183 190 183
-0.17602009 -0.11060168 0.61459064 183 190 183
-0.17423268 -0.11053424 0.61421591 184 191 184
-0.1722791 -0.11035906 0.61324245 184 191 184
-0.17049335 -0.11028899 0.61285311 183 189 185
-0.1688472 -0.11030874 0.61296284 181 187 183
-0.16720474 -0.1103313 0.61308825 183 189 185
-0.16554576 -0.11034332 0.61315501 185 191 187
-0.16372231 -0.11024485 0.61260784 185 191 187
-0.16232561 -0.11043465 0.61366254 183 189 185
-0.16016293 -0.11010186 0.61181331 183 190 183
-0.15800409 -0.10976473 0.60993993 180 187 180
-0.1563915 -0.10980392 0.61015767 183 190 183
-0.1550319 -0.11002349 0.61137778 183 190 183
-0.15335077 -0.11001718 0.61134273 185 192 185
-0.15191449 -0.11018834 0.61229378 184 191 184
-0.15041909 -0.11031993 0.61302507 183 190 183
-0.14912485 -0.11060371 0.61460191 184 191 184
-0.14714375 -0.1103787 0.61335164 183 190 183
-0.14516106 -0.11014731 0.61206585 184 191 184
-0.14332379 -0.11002215 0.61137033 184 191 184
-0.1416211 -0.10999855 0.61123919 184 191 184
-0.14025609 -0.11023981 0.61257982 185 191 187
-0.13840565 -0.11010074 0.61180705 186 192 188
-0.13655947 -0.1099617 0.61103445 185 192 185
-0.13479848 -0.10988867 0.6106286 185 192 185
-0.1338782 -0.11050774 0.61406869 185 192 185
-0.131923 -0.11027746 0.61278903 184 191 184
-0.13017243 -0.11021449 0.6124391 183 190 183
-0.12833644 -0.11007659 0.61167288 184 191 184
-0.12712198 -0.11047522 0.61388797 184 191 184
-0.12523331 -0.11029074 0.61286283 184 191 184
-0.12362401 -0.11035063 0.61319566 183 190 183
-0.1220374 -0.11043271 0.61365175 183 190 183
-0.12070478 -0.11075012 0.61541551 184 191 184
-0.11881969 -0.11056243 0.61437255 182 187 181
-0.11695343 -0.11038712 0.61339843 185 190 183
-0.11501795 -0.11014043 0.61202759 187 192 185
-0.11360517 -0.11039437 0.61343873 186 193 185
-0.11177783 -0.11024706 0.61262012 187 194 186
-0.11012828 -0.11027326 0.61276573 188 195 187
-0.10811796 -0.10993347 0.61087757 188 195 187
-0.10642282 -0.10990851 0.61073887 189 196 188
-0.10454487 -0.10969093 0.60952985 192 193 185
-0.10292123 -0.10973747 0.60978842 0 0 0
-0.099929549 -0.10830287 0.60181665 0 0 0
-0.096280694 -0.10609603 0.58955371 0 0 0
-0.093044691 -0.1042767 0.57944405 218 220 87
-0.090898551 -0.10363691 0.57588887 218 215 50
-0.089134336 -0.10341767 0.57467061 216 213 46
-0.08769083 -0.10356935 0.57551348 218 214 45
-0.086188145 -0.1036554 0.57599163 220 216 46
-0.084727816 -0.10379654 0.57677591 218 214 44
-0.083043955 -0.10366401 0.57603949 220 216 46
-0.08149863 -0.10370262 0.57625401 220 216 46
-0.079938367 -0.10372338 0.5763694 218 215 42
-0.078499511 -0.10390568 0.57738239 218 215 42
-0.076969147 -0.10397183 0.57774997 219 216 43
-0.075270161 -0.10380823 0.57684088 218 215 42
-0.073584802 -0.10365681 0.57599944 217 214 39
-0.071987882 -0.10362605 0.57582855 220 217 42
-0.070563771 -0.10384826 0.57706332 218 215 40
-0.068925679 -0.10375851 0.57656461 219 216 41
-0.067278631 -0.10365078 0.57596594 220 217 40
-0.06561327 -0.10350896 0.57517791 221 218 41
-0.064090185 -0.10359015 0.57562906 219 216 39
-0.062452793 -0.10348602 0.57505041 218 215 38
-0.060859457 -0.10345141 0.57485807 219 216 41
-0.059300333 -0.10347464 0.57498717 218 215 38
-0.057811659 -0.10362542 0.57582504 218 215 40
-0.056231156 -0.10361545 0.5757696 218 217 39
-0.054862425 -0.10400636 0.57794183 216 213 46
-0.053812385 -0.10504255 0.58369976 190 184 62
-0.053717077 -0.10806276 0.6004824 176 172 101
-0.053104781 -0.11020067 0.61236233 204 200 188
-0.051278692 -0.10987698 0.6105637 200 197 188
-0.049684875 -0.11004596 0.61150265 191 194 183
-0.047997884 -0.11001316 0.61132038 187 193 183
-0.04635245 -0.11007667 0.6116733 184 191 183
-0.044529762 -0.10970823 0.609626 183 190 182
-0.042900108 -0.10980523 0.61016494 179 186 179
-0.041274387 -0.10992054 0.61080569 180 187 180
-0.039710108 -0.1102161 0.61244804 179 186 179
-0.038047828 -0.11025372 0.61265713 177 184 177
-0.036372986 -0.11025672 0.61267382 178 185 178
-0.034624729 -0.11002675 0.6113959 175 182 175
-0.032927904 -0.10994516 0.61094248 176 183 176
-0.031353388 -0.11028503 0.61283112 177 184 177
-0.029731553 -0.11048748 0.61395609 177 184 177
-0.02804774 -0.11047005 0.61385924 178 185 178
-0.026294181 -0.11015821 0.61212641 180 187 180
-0.024649195 -0.11028975 0.61285734 178 185 178
-0.02294022 -0.11013328 0.61198783 178 184 180
-0.021270551 -0.11015573 0.61211264 177 183 179
-0.019559121 -0.10994726 0.61095423 176 182 178
-0.017942216 -0.11028086 0.61280793 176 182 178
-0.016243918 -0.11013135 0.61197716 177 183 179
-0.014543184 -0.10992909 0.61085325 179 186 179
-0.012864351 -0.10986136 0.61047685 177 184 177
-0.011180202 -0.10972124 0.60969824 176 183 176
-0.0095302928 -0.10992693 0.61084121 176 183 176
-0.0078531299 -0.1098389 0.61035204 175 182 175
-0.0062071742 -0.11025763 0.61267889 175 182 175
-0.0045255441 -0.1101181 0.61190349 175 182 175
-0.0028472813 -0.10994477 0.61094034 174 180 176
-0.0011750248 -0.10984033 0.61036003 177 183 179
0.00049461896 -0.10986067 0.61047304 178 184 180
0.0021644859 -0.10986096 0.61047465 176 182 178
0.0038301121 -0.1097395 0.60979968 177 183 179
0.0055167102 -0.11011032 0.61186028 179 185 181
0.0072036209 -0.1103133 0.61298817 177 183 179
0.0088924598 -0.11046358 0.61382329 177 183 179
0.010530793 -0.11003838 0.61146051 174 180 176
0.012177523 -0.10980545 0.61016619 173 180 173
0.013800351 -0.10943912 0.60813057 176 182 178
0.015514337 -0.10979676 0.61011785 175 182 175
0.017235916 -0.11013341 0.6119886 176 183 176
0.01894833 -0.11035711 0.6132316 176 182 178
0.020567838 -0.11004731 0.61151016 176 182 178
0.022197705 -0.10983539 0.61033255 175 181 177
0.023918107 -0.11006974 0.61163479 175 181 177
0.025637776 -0.11027031 0.61274928 177 183 179
0.02732374 -0.11031017 0.61297083 177 183 179
0.02897507 -0.1102137 0.61243474 180 186 182
0.030704519 -0.11040868 0.61351818 180 186 182
0.032426484 -0.11055791 0.61434746 179 185 181
0.034172729 -0.11077116 0.61553246 180 186 182
0.035842996 -0.11072966 0.61530185 183 189 185
0.037606664 -0.11096749 0.6166234 182 188 184
0.039286483 -0.1109481 0.61651564 184 190 186
0.0408962 -0.11074049 0.61536199 183 189 185
0.042433668 -0.11036137 0.61325532 184 190 186
0.044048551 -0.11020479 0.61238521 185 191 187
0.045858089 -0.11052883 0.61418587 183 189 185
0.047763474 -0.11105283 0.61709762 184 189 185
0.049446058 -0.1110407 0.6170302 182 186 185
0.05112398 -0.11101925 0.61691105 183 185 184
0.052729845 -0.11084771 0.6159578 180 182 181
0.054677263 -0.11138255 0.6189298 179 179 179
0.056261439 -0.11116754 0.61773503 180 180 180
0.057877678 -0.11102657 0.6169517 181 181 181
0.059406146 -0.11072998 0.61530364 185 185 185
0.061178215 -0.1108913 0.61620003 188 188 188
0.062783122 -0.11074909 0.61540979 191 191 191
0.06467858 -0.11111346 0.6174345 194 194 196
0.066490814 -0.11131993 0.61858183 224 225 229
0.067781478 -0.11066462 0.6149404 0 0 0
0.068184398 -0.10862675 0.60361636 0 0 0
0.068625309 -0.10674432 0.5931561 242 243 245
0.069600023 -0.10575999 0.58768642 236 237 241
0.071268469 -0.10585047 0.58818918 239 243 244
0.072751872 -0.10566817 0.5871762 232 236 237
0.074401163 -0.10572951 0.58751702 216 220 219
0.075893983 -0.10557058 0.58663392 207 211 210
0.077654198 -0.1057825 0.58781147 198 202 201
0.07930547 -0.10584041 0.58813328 200 206 204
0.080861047 -0.10577086 0.5877468 200 206 202
0.082505099 -0.10581749 0.5880059 202 208 204
0.084056698 -0.10574602 0.58760875 202 208 206
0.085714169 -0.10580793 0.58795279 206 212 208
0.087258659 -0.10573066 0.5875234 207 213 209
0.089143015 -0.10606055 0.58935654 210 216 212
0.090873621 -0.10619905 0.59012616 209 215 211
0.092500813 -0.10621396 0.59020901 212 218 214
0.093887746 -0.10595721 0.58878231 212 218 214
0.095490441 -0.10594852 0.58873403 212 218 214
0.097117871 -0.1059671 0.58883727 210 216 212
0.098870702 -0.10611967 0.58968508 208 214 210
0.10042083 -0.10605329 0.58931619 206 212 208
0.10192236 -0.10593847 0.58867818 204 210 206
0.1035287 -0.10593447 0.58865595 201 207 203
0.10522318 -0.1060194 0.5891279 201 207 203
0.10715906 -0.10634133 0.59091681 198 204 200
0.10875396 -0.10632035 0.59080023 198 204 200
0.11040319 -0.10635231 0.59097779 196 202 198
0.11184505 -0.10618648 0.5900563 194 200 196
0.11340089 -0.10613203 0.58975375 196 202 198
0.11491864 -0.10604396 0.58926439 194 201 194
0.11659197 -0.1060999 0.58957523 193 200 193
0.11829659 -0.10618243 0.59003377 191 198 191
0.12020567 -0.10644376 0.59148598 191 198 190
0.12203395 -0.10662756 0.5925073 190 197 189
0.12388996 -0.10683045 0.59363472 191 196 189
0.12525524 -0.10661041 0.59241199 189 194 187
0.12656501 -0.10634933 0.59096128 189 194 188
0.12783943 -0.10606555 0.58938432 189 194 188
0.12956892 -0.10616165 0.58991838 168 173 167
0.13157161 -0.1064765 0.59166789 157 164 157
0.13624068 -0.1089153 0.60521978 159 165 161
0.13982566 -0.11043926 0.61368817 159 165 161
0.141498 -0.11043435 0.61366081 163 169 165
0.1433896 -0.11059865 0.61457384 166 172 170
0.14482722 -0.11041304 0.61354244 168 174 172
0.14628127 -0.11024408 0.61260355 174 180 178
0.14783466 -0.11015294 0.61209714 175 181 179
0.14966786 -0.11027002 0.61274767 171 177 175
0.15133625 -0.11026441 0.61271656 173 179 177
0.15327549 -0.11045411 0.61377066 181 187 185
0.15508606 -0.11054798 0.61429226 180 186 184
0.15679687 -0.11056948 0.61441177 181 187 185
0.15836391 -0.11049023 0.61397135 181 187 185
0.15960543 -0.11018791 0.61229146 181 187 185
0.16121982 -0.1101466 0.61206192 182 188 186
0.16294669 -0.11018222 0.61225981 183 189 185
0.16494508 -0.11039884 0.61346352 182 188 184
0.16660911 -0.11038955 0.6134119 181 187 183
0.16833711 -0.11042242 0.61359453 181 187 183
0.17043789 -0.11069675 0.61511892 182 188 186
0.17247933 -0.11092754 0.61640143 182 188 186
0.17398068 -0.1108099 0.61574769 182 188 186
0.17567906 -0.11081878 0.61579704 181 187 185
0.17698002 -0.11057919 0.61446565 183 189 187
0.17846414 -0.11045747 0.61378932 181 187 185
0.1799168 -0.11031872 0.61301833 181 187 183
0.18156213 -0.11029959 0.612912 182 188 184
0.18299501 -0.11015292 0.61209702 183 189 185
0.18513557 -0.11043105 0.61364251 182 188 184
0.18679748 -0.11042123 0.61358792 182 188 184
0.18865325 -0.11052515 0.61416537 183 189 185
0.1898745 -0.11025877 0.6126852 183 189 187
0.19144765 -0.11019963 0.61235654 184 190 188
0.19306362 -0.11016592 0.61216927 184 190 188
0.19453773 -0.11005257 0.61153936 181 187 183
0.19642732 -0.11017417 0.6122151 184 190 188
0.19799599 -0.11011524 0.61188763 184 190 186
0.19976309 -0.11016674 0.6121738 185 191 187
0.20127738 -0.11007912 0.61168689 185 191 187
0.20312652 -0.11017455 0.61221719 184 190 186
0.20520636 -0.11039254 0.61342853 186 192 188
0.2066263 -0.11025487 0.61266351 186 192 188
0.20800805 -0.1100992 0.61179847 184 190 186
0.20940782 -0.10995547 0.61099982 185 191 187
0.21142772 -0.11013707 0.61200893 187 194 187
0.21284531 -0.11000451 0.61127234 187 194 187
0.2142227 -0.10985341 0.61043268 186 193 186
0.21552493 -0.10966641 0.60939354 152 159 152
0.21796237 -0.11005546 0.61155546 185 191 187
0.21985312 -0.11016467 0.61216229 189 195 191
0.22135618 -0.11007943 0.61168861 186 192 188
0.22212578 -0.10963345 0.60921037 186 192 190
0.2238528 -0.10966314 0.60937536 188 194 192
0.22533488 -0.10957329 0.60887611 187 193 191
0.22767358 -0.10989823 0.61068177 188 194 190
0.22899023 -0.10972872 0.60973978 189 195 191
0.23103487 -0.10990796 0.61073583 187 193 189
0.23265457 -0.10988393 0.61060226 188 194 190
0.23444252 -0.10993914 0.61090904 187 193 189
0.23625445 -0.11000474 0.61127359 188 194 190
0.23738566 -0.10975467 0.60988402 188 194 190
0.23881282 -0.10964399 0.60926896 189 195 191
0.23985933 -0.10936128 0.60769802 190 196 192
0.24121311 -0.10922159 0.60692179 190 196 192
0.24267091 -0.1091306 0.60641617 193 199 195
0.24429809 -0.10911649 0.60633779 193 198 192
0.24558994 -0.10895381 0.60543382 176 178 173
0.24801366 -0.10929208 0.60731351 156 161 154
0.25075862 -0.10976648 0.60994965 58 65 57
0.25379711 -0.11036225 0.61326021 113 120 112
0.25536796 -0.11031618 0.61300421 166 173 165
0.25645268 -0.11006209 0.61159223 194 200 196
0.25704461 -0.10960115 0.60903096 195 201 197
0.25825393 -0.10940772 0.60795605 187 192 188
0.25997415 -0.10943182 0.60808998 186 191 187
0.26171035 -0.10946229 0.60825932 185 192 185
0.26357228 -0.10954463 0.60871685 184 194 186
0.26560977 -0.10969845 0.60957164 188 195 188
0.26798624 -0.10998947 0.61118877 188 195 188
0.26973113 -0.11001928 0.61135441 192 197 193
0.27128899 -0.1099729 0.61109668 194 199 195
0.27200869 -0.10958941 0.60896569 192 197 193
0.27250409 -0.10912075 0.60636145 185 190 186
0.27371398 -0.10894216 0.60536903 203 208 204
0.27574649 -0.10909116 0.606197 188 190 187
0.2785154 -0.10952796 0.60862422 189 191 188
0.28004375 -0.10947461 0.60832781 189 194 188
0.28121269 -0.10928224 0.6072588 196 201 195
0.28360769 -0.10956577 0.60883433 195 200 194
0.28516629 -0.10952476 0.60860646 191 196 192
0.28599367 -0.10920502 0.6068297 191 196 192
0.2871049 -0.10899672 0.60567224 188 194 190
0.28871667 -0.10897975 0.60557795 187 193 189
0.29149431 -0.10940054 0.60791618 190 196 192
0.29188737 -0.10892667 0.60528296 191 197 193
0.29340181 -0.10887425 0.60499173 192 198 194
0.29378363 -0.10840452 0.60238147 191 197 193
0.29606032 -0.10863531 0.60366392 191 198 191
0.29749832 -0.10855749 0.60323155 190 197 190
0.30014452 -0.10891899 0.60524029 187 194 187
0.30162778 -0.10885681 0.60489482 189 196 189
0.30251494 -0.10858135 0.60336411 190 197 190
0.30405414 -0.10854165 0.60314351 189 196 189
0.30543956 -0.10844778 0.60262185 186 193 186
0.30774656 -0.10868037 0.60391432 185 192 185
0.30797991 -0.10818207 0.60114539 186 193 186
0.30911812 -0.10800522 0.60016268 183 188 182
0.30842379 -0.10719335 0.59565127 173 176 169
0.30941087 -0.10697131 0.59441745 164 167 160
0.30879343 -0.10619977 0.59013015 153 153 143
0.30741638 -0.10517637 0.58444333 0 0 0
0.30504191 -0.10382407 0.57692891 0 0 0
0.30152908 -0.10210024 0.56734991 175 174 156
nan nan nan 0 0 0
nan nan nan 0 0 0
nan nan nan 0 0 0
nan nan nan 0 0 0
nan nan nan 0 0 0
nan nan nan 0 0 0
nan nan nan 0 0 0
nan nan nan 0 0 0
nan nan nan 0 0 0
nan nan nan 0 0 0
nan nan nan 0 0 0
nan nan nan 0 0 0
nan nan nan 0 0 0
nan nan nan 0 0 0
nan nan nan 0 0 0
nan nan nan 0 0 0
nan nan nan 0 0 0
nan nan nan 0 0 0
nan nan nan 0 0 0
nan nan nan 0 0 0
nan nan nan 0 0 0
nan nan nan 0 0 0
nan nan nan 0 0 0
nan nan nan 0 0 0
nan nan nan 0 0 0
nan nan nan 0 0 0
nan nan nan 0 0 0
nan nan nan 0 0 0
nan nan nan 0 0 0
nan nan nan 0 0 0
nan nan nan 0 0 0
nan nan nan 0 0 0
nan nan nan 0 0 0
nan nan nan 0 0 0
nan nan nan 0 0 0
nan nan nan 0 0 0
nan nan nan 0 0 0
nan nan nan 0 0 0
nan nan nan 0 0 0
nan nan nan 0 0 0
nan nan nan 0 0 0
nan nan nan 0 0 0
nan nan nan 0 0 0
nan nan nan 0 0 0
nan nan nan 0 0 0
nan nan nan 0 0 0
nan nan nan 0 0 0
nan nan nan 0 0 0
nan nan nan 0 0 0
nan nan nan 0 0 0
nan nan nan 0 0 0
nan nan nan 0 0 0
nan nan nan 0 0 0
nan nan nan 0 0 0
nan nan nan 0 0 0
nan nan nan 0 0 0
nan nan nan 0 0 0
nan nan nan 0 0 0
nan nan nan 0 0 0
nan nan nan 0 0 0
nan nan nan 0 0 0
nan nan nan 0 0 0
nan nan nan 0 0 0
nan nan nan 0 0 0
nan nan nan 0 0 0
nan nan nan 0 0 0
nan nan nan 0 0 0
nan nan nan 0 0 0
nan nan nan 0 0 0
nan nan nan 0 0 0
nan nan nan 0 0 0
nan nan nan 0 0 0
nan nan nan 0 0 0
nan nan nan 0 0 0
nan nan nan 0 0 0
nan nan nan 0 0 0
nan nan nan 0 0 0
nan nan nan 0 0 0
nan nan nan 0 0 0
nan nan nan 0 0 0
nan nan nan 0 0 0
nan nan nan 0 0 0
nan nan nan 0 0 0
nan nan nan 0 0 0
nan nan nan 0 0 0
nan nan nan 0 0 0
nan nan nan 0 0 0
nan nan nan 0 0 0
nan nan nan 0 0 0
nan nan nan 0 0 0
nan nan nan 0 0 0
nan nan nan 0 0 0
nan nan nan 0 0 0
nan nan nan 0 0 0
nan nan nan 0 0 0
nan nan nan 0 0 0
nan nan nan 0 0 0
nan nan nan 0 0 0
nan nan nan 0 0 0
nan nan nan 0 0 0
nan nan nan 0 0 0
nan nan nan 0 0 0
nan nan nan 0 0 0
nan nan nan 0 0 0
nan nan nan 0 0 0
nan nan nan 0 0 0
nan nan nan 0 0 0
nan nan nan 0 0 0
nan nan nan 0 0 0
nan nan nan 0 0 0
nan nan nan 0 0 0
nan nan nan 0 0 0
nan nan nan 0 0 0
nan nan nan 0 0 0
nan nan nan 0 0 0
nan nan nan 0 0 0
-0.33190182 -0.10714305 0.60456103 170 176 172
-0.33299601 -0.10803455 0.60959136 186 190 189
-0.3308253 -0.10787046 0.60866547 191 195 196
-0.32881954 -0.10775876 0.60803521 192 196 197
-0.32715634 -0.10775876 0.60803521 197 201 202
-0.32566038 -0.10781413 0.60834759 195 201 201
-0.32420808 -0.10788459 0.60874516 198 204 204
-0.3226862 -0.1079325 0.60901552 198 204 204
-0.31983897 -0.10753532 0.60677439 197 203 201
-0.31806827 -0.1074978 0.60656273 197 203 201
-0.31616139 -0.10741366 0.60608792 196 202 200
-0.3156001 -0.10778818 0.60820115 191 197 193
-0.313647 -0.10768878 0.60764033 186 192 188
-0.31185344 -0.10764341 0.60738432 190 196 192
-0.30937317 -0.10735925 0.6057809 191 198 191
-0.30835652 -0.10758267 0.6070416 192 199 192
-0.30636764 -0.10746748 0.60639161 194 201 194
-0.305298 -0.10767523 0.60756385 189 199 191
-0.30352533 -0.10763595 0.60734224 191 200 195
-0.30286103 -0.10799146 0.60934818 191 200 195
-0.30109176 -0.1079547 0.60914081 191 200 195
-0.29942158 -0.10795328 0.60913277 191 202 196
-0.29688358 -0.1076372 0.60734928 191 202 196
-0.29503825 -0.10757011 0.60697073 191 202 194
-0.29308599 -0.10746305 0.60636663 188 198 190
-0.29246566 -0.10784592 0.608527 193 199 195
-0.29094806 -0.10790042 0.60883451 191 197 193
-0.2902872 -0.10827509 0.61094862 192 198 194
-0.28858608 -0.10826385 0.6108852 192 198 194
-0.28716168 -0.10835689 0.6114102 193 199 195
-0.28463233 -0.10803165 0.60957497 193 200 193
-0.2827366 -0.10794448 0.60908312 192 199 192
-0.28090489 -0.10788087 0.60872418 190 200 192
-0.27886349 -0.10773548 0.60790384 189 199 191
-0.27679238 -0.1075768 0.60700846 192 202 194
-0.2753593 -0.10766568 0.60750997 191 201 193
-0.27386788 -0.10773268 0.60788804 189 199 191
-0.27285343 -0.10798928 0.6093359 189 199 191
-0.27057931 -0.10774742 0.60797119 188 198 190
-0.26935685 -0.10792395 0.60896724 189 198 193
-0.26763597 -0.10790171 0.60884178 189 195 191
-0.26574349 -0.10780958 0.60832196 189 195 191
-0.26388147 -0.10772874 0.60786581 190 196 192
-0.26210061 -0.1076802 0.60759193 190 197 190
-0.26103371 -0.10792625 0.60898024 189 196 189
-0.25991261 -0.1081529 0.61025912 188 195 188
-0.25869858 -0.10834354 0.61133486 188 195 188
-0.25675803 -0.10823044 0.61069667 189 196 189
-0.25398514 -0.10776269 0.60805738 188 195 188
-0.25202876 -0.10763751 0.60735101 189 196 189
-0.25078219 -0.10781582 0.60835719 188 198 190
-0.24994107 -0.10817198 0.61036682 185 195 187
-0.24859264 -0.10831191 0.61115634 183 194 186
-0.24643369 -0.10809819 0.60995042 186 195 190
-0.24390379 -0.10771772 0.60780364 188 197 192
-0.24200624 -0.10761323 0.60721403 187 197 189
-0.24021848 -0.10755645 0.60689366 187 197 189
-0.23903087 -0.10776947 0.60809559 187 197 189
-0.23725495 -0.10771836 0.60780722 187 197 189
-0.23597063 -0.10789131 0.60878313 186 196 188
-0.23457959 -0.10801756 0.60949552 187 197 189
-0.23332848 -0.10821053 0.61058432 189 196 189
-0.2317936 -0.10827373 0.61094093 187 194 187
-0.23035915 -0.10838509 0.61156929 189 196 189
-0.22875124 -0.10841587 0.61174297 188 195 188
-0.22672006 -0.10824503 0.61077899 187 194 187
-0.22505842 -0.10824938 0.61080354 187 194 187
-0.22330868 -0.10821111 0.6105876 188 194 190
-0.22188643 -0.10833214 0.61127055 189 195 193
-0.21981969 -0.10813799 0.61017501 186 192 188
-0.21851358 -0.1083179 0.61119014 188 197 192
-0.21683595 -0.10831499 0.61117375 189 198 193
-0.21510537 -0.10828539 0.61100674 188 197 192
-0.21307983 -0.10810567 0.60999268 188 197 192
-0.21162727 -0.10821613 0.61061591 188 197 192
-0.20985229 -0.10816215 0.61031133 187 198 192
-0.20794067 -0.10803631 0.60960126 189 198 193
-0.20579098 -0.10778375 0.60817617 190 196 192
-0.20448397 -0.10797203 0.60923856 191 197 193
-0.20319071 -0.10817072 0.61035967 191 198 191
-0.20229869 -0.10858806 0.61271459 191 197 193
-0.20065181 -0.10860384 0.61280358 191 197 193
-0.19879028 -0.10850269 0.61223286 190 196 192
-0.19682062 -0.10834031 0.61131662 189 195 191
-0.19529654 -0.10842254 0.61178058 188 194 190
-0.19358559 -0.10840153 0.61166203 185 194 189
-0.19180514 -0.10834089 0.6113199 185 194 189
-0.19011283 -0.10832943 0.61125523 189 195 191
-0.18816312 -0.10816977 0.61035436 189 195 191
-0.18663599 -0.10825237 0.61082041 185 191 187
-0.18479697 -0.10815394 0.61026502 187 193 189
-0.18324295 -0.10822202 0.61064911 188 194 190
-0.18150558 -0.10818206 0.61042368 185 191 187
-0.17983143 -0.10817941 0.61040872 185 192 185
-0.17849535 -0.10838196 0.61155164 179 186 179
-0.17679927 -0.1083677 0.61147118 180 187 180
-0.17546968 -0.10857996 0.61266881 186 193 186
-0.17340519 -0.10833715 0.6112988 185 192 185
-0.17140028 -0.10812721 0.61011422 184 191 184
-0.1698952 -0.10823157 0.61070305 183 189 185
-0.16839726 -0.10834258 0.61132944 180 186 182
-0.16688174 -0.10844439 0.61190391 182 188 184
-0.16543995 -0.10859666 0.61276311 185 191 187
-0.16383247 -0.10864219 0.61302 185 191 187
-0.16296276 -0.10918295 0.61607128 183 189 185
-0.16066922 -0.10877109 0.6137473 183 190 183
-0.15884636 -0.10867255 0.61319131 185 192 185
-0.15706658 -0.10860169 0.61279148 184 191 184
-0.15551178 -0.10868654 0.61327022 186 193 186
-0.15388601 -0.1087231 0.61347651 184 191 184
-0.15228391 -0.10877736 0.6137827 183 190 183
-0.15082578 -0.10893684 0.61468256 183 190 183
-0.14906214 -0.10887674 0.61434346 184 191 184
-0.14709191 -0.10866267 0.61313558 184 191 184
-0.14514968 -0.10846458 0.61201781 184 191 184
-0.14377657 -0.10869212 0.61330169 184 191 184
-0.1422126 -0.10877903 0.61379212 184 191 184
-0.1407495 -0.1089461 0.61473483 181 187 183
-0.13892855 -0.10883687 0.61411846 185 191 187
-0.13708128 -0.10870409 0.61336929 183 190 183
-0.13512059 -0.10847697 0.61208773 186 193 186
-0.13387325 -0.10882403 0.61404604 184 191 184
-0.13196348 -0.10863457 0.61297697 185 192 185
-0.1302375 -0.10859349 0.61274523 185 192 185
-0.12858872 -0.10861655 0.61287528 184 191 184
-0.1275389 -0.10915284 0.61590135 184 191 184
-0.12577648 -0.10908544 0.61552107 184 191 184
-0.12409102 -0.10908386 0.61551213 183 190 183
-0.12253218 -0.10919508 0.61613971 181 191 183
-0.12084569 -0.10919406 0.61613393 181 188 181
-0.11876822 -0.10883472 0.61410636 186 191 185
-0.11694655 -0.10870286 0.61336231 182 187 180
-0.11523873 -0.10867452 0.61320239 187 192 185
-0.11386993 -0.10896976 0.61486834 187 194 186
-0.11214913 -0.10893197 0.61465508 187 194 186
-0.11043254 -0.10889716 0.61445868 188 195 187
-0.1086845 -0.1088298 0.61407858 188 195 187
-0.10672037 -0.10854054 0.61244643 189 196 188
-0.10495869 -0.10845125 0.61194259 192 193 185
-0.10327133 -0.10843709 0.61186272 0 0 0
-0.1002254 -0.10697245 0.60359836 0 0 0
-0.09652321 -0.10474657 0.5910387 0 0 0
-0.093311191 -0.10298584 0.58110374 215 216 80
-0.091155209 -0.10234983 0.57751495 211 209 39
-0.089335464 -0.10207555 0.57596737 210 208 38
-0.087765366 -0.10208181 0.57600266 217 213 43
-0.086407162 -0.10233925 0.57745528 217 213 43
-0.084875494 -0.10239702 0.57778126 217 213 43
-0.083248675 -0.10234 0.57745951 217 213 43
-0.08165282 -0.10231957 0.57734424 216 213 40
-0.080147319 -0.10241381 0.57787597 217 214 41
-0.07857722 -0.10242762 0.57795393 215 211 41
-0.077063873 -0.1025175 0.57846105 216 213 40
-0.075349405 -0.10233799 0.57744813 217 214 41
-0.073827304 -0.10241766 0.57789767 216 213 40
-0.072136082 -0.10226105 0.57701403 217 214 39
-0.070650436 -0.10239539 0.57777208 218 215 40
-0.06897825 -0.10225934 0.57700437 219 216 41
-0.067412972 -0.10227913 0.57711601 218 215 38
-0.065762825 -0.10216799 0.57648897 219 216 39
-0.064234562 -0.10224541 0.57692581 220 217 40
-0.062620133 -0.10218612 0.57659125 220 217 40
-0.061095905 -0.10227477 0.57709146 218 215 40
-0.059500314 -0.10224549 0.57692623 217 215 36
-0.058011681 -0.10240341 0.57781732 219 216 41
-0.056358848 -0.10227223 0.57707709 217 216 40
-0.055037063 -0.10275152 0.57978153 213 210 45
-0.054016542 -0.10383839 0.58591425 183 174 53
-0.054048222 -0.10707626 0.60418415 176 173 70
-0.0530908 -0.10849706 0.61220109 187 186 142
-0.0512884 -0.10822736 0.61067927 196 194 179
-0.049640961 -0.10827749 0.61096215 188 191 182
-0.048023202 -0.10839812 0.61164284 183 188 181
-0.04631874 -0.10832468 0.61122847 179 186 178
-0.044656157 -0.10834736 0.61135638 181 188 180
-0.043006569 -0.10840455 0.61167914 179 186 179
-0.04144061 -0.1086857 0.61326551 178 185 178
-0.039735295 -0.10860968 0.61283654 178 185 178
-0.038100939 -0.10872944 0.61351234 177 184 177
-0.036422871 -0.10872976 0.61351413 177 184 177
-0.034776453 -0.10882916 0.61407501 176 183 176
-0.033100635 -0.10884198 0.61414731 175 182 175
-0.031513624 -0.10916378 0.6159631 176 183 176
-0.029855182 -0.10926053 0.61650902 177 184 177
-0.02817815 -0.10929675 0.6167134 178 185 178
-0.026420306 -0.10900419 0.61506259 178 185 178
-0.024755199 -0.10908046 0.61549294 178 185 178
-0.023009215 -0.10878547 0.61382842 179 185 181
-0.021317087 -0.10871872 0.61345184 178 184 180
-0.019619398 -0.10860977 0.61283702 177 183 179
-0.017962394 -0.10872674 0.61349708 177 183 179
-0.016274389 -0.10866082 0.61312515 176 182 178
-0.014564256 -0.10841504 0.61173832 179 185 181
-0.012923433 -0.10868836 0.61328053 177 184 177
-0.011244866 -0.10867845 0.61322463 176 183 176
-0.009585226 -0.10888005 0.61436212 176 183 176
-0.0078876959 -0.10864548 0.61303854 175 182 175
-0.0062145339 -0.10871048 0.61340535 176 183 176
-0.0045305989 -0.10856543 0.61258692 176 183 176
-0.0028517211 -0.10844246 0.611893 175 181 177
-0.0011798809 -0.10861783 0.61288255 177 183 179
0.00049670663 -0.10864747 0.61304975 176 182 178
0.0021740159 -0.10866745 0.61316252 176 182 178
0.0038427967 -0.10842938 0.61181921 175 181 177
0.0055269212 -0.10863736 0.61299276 175 181 177
0.0072191693 -0.10887104 0.61431128 173 179 175
0.0089068012 -0.10896 0.61481327 172 178 174
0.010578377 -0.10885546 0.61422342 167 173 169
0.012234981 -0.10864665 0.61304516 172 178 174
0.01386077 -0.10824751 0.61079299 175 181 177
0.015549998 -0.1083764 0.61152023 177 184 177
0.017256839 -0.10859106 0.61273152 177 184 177
0.018984737 -0.10888851 0.61440986 176 182 178
0.02061912 -0.10864482 0.61303484 177 183 179
0.022276865 -0.10855164 0.61250907 175 181 177
0.023971464 -0.10863852 0.61299926 177 183 179
0.025653813 -0.10866214 0.6131326 176 182 178
0.027307229 -0.10856783 0.61260045 178 184 180
0.028991673 -0.10860067 0.6127857 178 184 182
0.030701632 -0.10872026 0.61346048 179 185 183
0.032432854 -0.10889884 0.61446816 179 185 183
0.034134496 -0.10896541 0.61484379 180 186 184
0.035846878 -0.1090584 0.61536849 180 186 182
0.037552092 -0.10912222 0.61572862 181 187 183
0.039268095 -0.10921057 0.61622709 183 189 185
0.040964734 -0.10924001 0.61639321 184 190 186
0.042583294 -0.10906713 0.61541772 183 189 185
0.044190336 -0.10887902 0.61435634 183 189 185
0.045942686 -0.10904961 0.61531889 187 192 188
0.047735013 -0.10929968 0.61672992 188 190 187
0.049431913 -0.10932162 0.61685371 182 184 183
0.051090065 -0.10925926 0.61650181 179 179 179
0.052821651 -0.1093529 0.6170302 175 175 175
0.054711878 -0.109759 0.61932164 176 176 176
0.056214813 -0.10938708 0.61722308 176 176 176
0.057834599 -0.10925761 0.61649251 179 179 179
0.059429817 -0.10909036 0.61554879 185 185 185
0.061253645 -0.10934041 0.61695975 186 186 186
0.063025311 -0.10948644 0.61778373 190 190 190
0.064953811 -0.10989019 0.62006187 200 201 203
0.066805482 -0.11014669 0.62150925 229 230 232
0.068053886 -0.10942052 0.61741179 0 0 0
0.068590835 -0.1076133 0.60721439 0 0 0
0.068897307 -0.10553849 0.59550714 195 199 198
0.069835253 -0.10450447 0.58967268 198 203 199
0.071330808 -0.10433275 0.58870369 199 204 200
0.072977506 -0.10438478 0.5889973 198 205 198
0.074601844 -0.10440329 0.58910173 202 209 202
0.076263405 -0.10447199 0.5894894 203 209 205
0.077920586 -0.10453199 0.58982795 200 206 202
0.079550661 -0.10455391 0.58995163 204 210 206
0.080969729 -0.10430317 0.5885368 203 209 205
0.082779944 -0.10455623 0.58996469 205 211 207
0.084448673 -0.10462432 0.5903489 205 211 207
0.086263232 -0.10486715 0.59171909 207 213 209
0.087532997 -0.10445093 0.58937055 208 214 210
0.089369789 -0.10471416 0.59085584 207 213 209
0.091029368 -0.10476408 0.59113753 208 214 210
0.092801481 -0.10493952 0.59212744 207 214 207
0.094094761 -0.10457675 0.5900805 207 213 209
0.095871136 -0.10475409 0.59108114 203 209 205
0.097574584 -0.10484717 0.59160638 200 206 202
0.099571362 -0.10524727 0.59386396 200 207 200
0.10110796 -0.10515593 0.59334856 196 203 196
0.10273132 -0.10515627 0.59335047 197 204 197
0.1041249 -0.10492506 0.59204584 195 202 195
0.10571081 -0.10489178 0.59185809 194 201 194
0.10740095 -0.10496137 0.5922507 193 200 193
0.10925051 -0.10518236 0.59349769 190 197 190
0.11087118 -0.10517974 0.59348291 192 199 192
0.1125658 -0.10524634 0.59385872 191 198 191
0.11389242 -0.10497187 0.59231001 191 196 189
0.1155253 -0.10498341 0.5923751 190 195 188
0.11695489 -0.10481245 0.59141046 188 193 186
0.11875243 -0.10497141 0.59230739 191 194 187
0.12054963 -0.10512578 0.59317845 189 194 187
0.12270363 -0.10558307 0.59575874 188 191 184
0.12460837 -0.10581671 0.59707707 189 192 185
0.12603885 -0.10564678 0.59611821 187 188 182
0.12722003 -0.10527489 0.59401977 186 189 182
0.12843825 -0.10494263 0.59214503 185 187 182
0.13025875 -0.10510463 0.59305912 168 173 167
0.13221551 -0.10537124 0.59456348 151 156 150
0.13704626 -0.10789403 0.60879844 155 162 155
0.14025748 -0.10909649 0.61558342 158 164 160
0.14174211 -0.10894337 0.61471945 162 168 164
0.14350998 -0.10900902 0.61508983 165 171 167
0.14504206 -0.10889608 0.6144526 167 173 169
0.14701131 -0.10911021 0.61566079 170 176 172
0.14870362 -0.10911626 0.615695 169 175 171
0.15055437 -0.10923714 0.61637706 172 178 174
0.15222488 -0.10922603 0.61631435 176 182 180
0.15418617 -0.10942151 0.61741734 180 186 184
0.15588264 -0.10942686 0.6174475 179 185 183
0.15733589 -0.10926317 0.61652392 179 185 183
0.15878047 -0.10909701 0.61558634 180 186 184
0.16017684 -0.10890157 0.61448354 179 185 183
0.16205886 -0.10903692 0.61524731 180 186 184
0.16374597 -0.10903972 0.61526304 180 186 184
0.16551025 -0.10909332 0.61556554 184 190 188
0.16688819 -0.10889375 0.61443943 179 185 183
0.16842166 -0.10879862 0.61390269 181 187 185
0.1698882 -0.10866259 0.6131351 179 185 183
0.17178431 -0.10880127 0.61391759 183 189 187
0.17338991 -0.10875505 0.61365682 180 186 184
0.17512627 -0.10879096 0.61385942 181 187 185
0.17635174 -0.10851181 0.6122843 180 186 182
0.17798659 -0.10848745 0.61214685 183 189 185
0.17972013 -0.10852315 0.61234826 181 187 183
0.1813207 -0.10847861 0.61209697 181 187 183
0.18293107 -0.10844072 0.61188316 182 188 184
0.18518785 -0.10878322 0.61381578 179 185 181
0.18686584 -0.10878263 0.61381245 181 187 183
0.1887401 -0.10889529 0.61444813 182 188 186
0.19000752 -0.10865893 0.61311448 182 188 186
0.19132775 -0.10845665 0.61197305 185 191 189
0.1927598 -0.1083207 0.61120594 183 189 187
0.19395715 -0.10805634 0.60971427 184 190 186
0.1958635 -0.10818812 0.61045784 184 190 186
0.19696622 -0.10787751 0.60870522 184 190 186
0.19869322 -0.10791117 0.60889518 186 192 188
0.20031734 -0.10788886 0.6087693 184 190 186
0.20255227 -0.10819318 0.61048645 186 192 188
0.20475341 -0.10847463 0.61207449 185 191 187
0.20629172 -0.1084032 0.61167145 185 191 187
0.20783736 -0.10833673 0.61129642 186 192 188
0.20942022 -0.10829058 0.611036 185 191 187
0.21128224 -0.10838837 0.61158782 188 194 190
0.21219611 -0.10800204 0.6094079 188 194 190
0.2131595 -0.10764674 0.6074031 186 193 186
0.21439835 -0.10743497 0.60620821 152 158 154
0.21677251 -0.10779098 0.608217 179 185 181
0.21856023 -0.10785218 0.60856235 186 192 188
0.22029059 -0.10788437 0.60874397 187 193 189
0.22134461 -0.10758733 0.60706788 189 195 193
0.22324879 -0.10770488 0.60773116 188 194 192
0.22465913 -0.10758419 0.60705018 186 192 190
0.22719304 -0.10799938 0.60939288 189 195 193
0.22843331 -0.10779805 0.60825688 186 192 188
0.23059551 -0.10803154 0.60957438 187 193 189
0.23261142 -0.10819364 0.61048901 188 194 190
0.23459999 -0.10834081 0.61131942 187 193 189
0.23601238 -0.10822169 0.61064726 189 195 191
0.2367885 -0.10781452 0.6083498 189 195 191
0.23819932 -0.10770003 0.6077038 189 195 191
0.23948696 -0.10753181 0.6067546 190 196 192
0.24074021 -0.10735057 0.6057319 191 197 193
0.24220186 -0.1072641 0.60524404 190 196 192
